# .PCD v0.7 - Point Cloud Data file format
VERSION 0.7
FIELDS x y z intensity
SIZE 4 4 4 4
TYPE F F F F
COUNT 1 1 1 1
WIDTH 1500
HEIGHT 1
VIEWPOINT 0 0 0 1 0 0 0
POINTS 1500
DATA ascii
0.50911689 0.50911689 0.5 1
0.51618797 0.51618797 0.5 1
0.52325904 0.52325904 0.5 1
0.53033006 0.53033006 0.5 1
0.53740114 0.53740114 0.5 1
0.54447222 0.54447222 0.5 1
0.5515433 0.5515433 0.5 1
0.55861437 0.55861437 0.5 1
0.56568545 0.56568545 0.5 1
0.57275647 0.57275647 0.5 1
0.57982755 0.57982755 0.5 1
0.58689862 0.58689862 0.5 1
0.5939697 0.5939697 0.5 1
0.60104078 0.60104078 0.5 1
0.60811186 0.60811186 0.5 1
0.61518288 0.61518288 0.5 1
0.62225395 0.62225395 0.5 1
0.62932503 0.62932503 0.5 1
0.63639611 0.63639611 0.5 1
0.64346719 0.64346719 0.5 1
0.65053827 0.65053827 0.5 1
0.65760928 0.65760928 0.5 1
0.66468036 0.66468036 0.5 1
0.67175144 0.67175144 0.5 1
0.67882252 0.67882252 0.5 1
0.6858936 0.6858936 0.5 1
0.69296467 0.69296467 0.5 1
0.70003569 0.70003569 0.5 1
0 0 0.5 2
-0.0070710676 0.0070710676 0.5 2
-0.014142135 0.014142135 0.5 2
-0.021213204 0.021213204 0.5 2
-0.02828427 0.02828427 0.5 2
-0.035355341 0.035355341 0.5 2
-0.042426407 0.042426407 0.5 2
-0.049497474 0.049497474 0.5 2
-0.056568541 0.056568541 0.5 2
-0.063639611 0.063639611 0.5 2
-0.070710681 0.070710681 0.5 2
-0.077781744 0.077781744 0.5 2
-0.084852815 0.084852815 0.5 2
-0.091923878 0.091923878 0.5 2
-0.098994948 0.098994948 0.5 2
-0.10606602 0.10606602 0.5 2
-0.11313708 0.11313708 0.5 2
-0.12020815 0.12020815 0.5 2
-0.12727922 0.12727922 0.5 2
-0.13435028 0.13435028 0.5 2
-0.14142136 0.14142136 0.5 2
-0.14849243 0.14849243 0.5 2
-0.15556349 0.15556349 0.5 2
-0.16263457 0.16263457 0.5 2
-0.16970563 0.16970563 0.5 2
-0.17677669 0.17677669 0.5 2
-0.18384776 0.18384776 0.5 2
-0.19091883 0.19091883 0.5 2
-0.1979899 0.1979899 0.5 2
-0.20506096 0.20506096 0.5 2
-0.21213204 0.21213204 0.5 2
-0.2192031 0.2192031 0.5 2
-0.22627416 0.22627416 0.5 2
-0.23334524 0.23334524 0.5 2
-0.2404163 0.2404163 0.5 2
-0.24748737 0.24748737 0.5 2
-0.25455844 0.25455844 0.5 2
-0.26162952 0.26162952 0.5 2
-0.26870057 0.26870057 0.5 2
-0.27577165 0.27577165 0.5 2
-0.28284273 0.28284273 0.5 2
-0.28991377 0.28991377 0.5 2
-0.29698485 0.29698485 0.5 2
-0.30405593 0.30405593 0.5 2
-0.31112698 0.31112698 0.5 2
-0.31819806 0.31819806 0.5 2
-0.32526913 0.32526913 0.5 2
-0.33234018 0.33234018 0.5 2
-0.33941126 0.33941126 0.5 2
-0.34648234 0.34648234 0.5 2
-0.35355338 0.35355338 0.5 2
-0.36062446 0.36062446 0.5 2
-0.36769551 0.36769551 0.5 2
-0.37476659 0.37476659 0.5 2
-0.38183767 0.38183767 0.5 2
-0.38890874 0.38890874 0.5 2
-0.39597979 0.39597979 0.5 2
-0.40305087 0.40305087 0.5 2
-0.41012192 0.41012192 0.5 2
-0.417193 0.417193 0.5 2
-0.42426407 0.42426407 0.5 2
-0.43133515 0.43133515 0.5 2
-0.4384062 0.4384062 0.5 2
-0.44547728 0.44547728 0.5 2
-0.45254833 0.45254833 0.5 2
-0.4596194 0.4596194 0.5 2
-0.46669048 0.46669048 0.5 2
-0.47376156 0.47376156 0.5 2
-0.48083261 0.48083261 0.5 2
-0.48790368 0.48790368 0.5 2
-0.49497473 0.49497473 0.5 2
-0.50204581 0.50204581 0.5 2
-0.50911689 0.50911689 0.5 2
-0.51618797 0.51618797 0.5 2
-0.52325904 0.52325904 0.5 2
-0.53033006 0.53033006 0.5 2
-0.53740114 0.53740114 0.5 2
-0.54447222 0.54447222 0.5 2
-0.5515433 0.5515433 0.5 2
-0.55861437 0.55861437 0.5 2
-0.56568545 0.56568545 0.5 2
-0.57275647 0.57275647 0.5 2
-0.57982755 0.57982755 0.5 2
-0.58689862 0.58689862 0.5 2
-0.5939697 0.5939697 0.5 2
-0.60104078 0.60104078 0.5 2
-0.60811186 0.60811186 0.5 2
-0.61518288 0.61518288 0.5 2
-0.62225395 0.62225395 0.5 2
-0.62932503 0.62932503 0.5 2
-0.63639611 0.63639611 0.5 2
-0.64346719 0.64346719 0.5 2
-0.65053827 0.65053827 0.5 2
-0.65760928 0.65760928 0.5 2
-0.66468036 0.66468036 0.5 2
-0.67175144 0.67175144 0.5 2
-0.67882252 0.67882252 0.5 2
-0.6858936 0.6858936 0.5 2
-0.69296467 0.69296467 0.5 2
-0.70003569 0.70003569 0.5 2
0 0 0.5 3
0 0 0.50999999 3
0 0 0.51999998 3
0 0 0.52999997 3
0 0 0.54000002 3
0 0 0.55000001 3
0 0 0.56 3
0 0 0.56999999 3
0 0 0.57999998 3
0 0 0.59000003 3
0 0 0.60000002 3
0 0 0.61000001 3
0 0 0.62 3
0 0 0.63 3
0 0 0.63999999 3
0 0 0.64999998 3
0 0 0.65999997 3
0 0 0.67000002 3
0 0 0.68000001 3
0 0 0.69 3
0 0 0.69999999 3
0 0 0.70999998 3
0 0 0.72000003 3
0 0 0.73000002 3
0 0 0.74000001 3
0 0 0.75 3
0 0 0.75999999 3
0 0 0.76999998 3
0 0 0.77999997 3
0 0 0.78999996 3
0 0 0.80000001 3
0 0 0.81 3
0 0 0.81999999 3
0 0 0.83000004 3
0 0 0.84000003 3
0 0 0.85000002 3
0 0 0.86000001 3
0 0 0.87 3
0 0 0.88 3
0 0 0.88999999 3
0 0 0.89999998 3
0 0 0.90999997 3
0 0 0.91999996 3
0 0 0.93000001 3
0 0 0.94 3
0 0 0.94999999 3
0 0 0.96000004 3
0 0 0.97000003 3
0 0 0.98000002 3
0 0 0.99000001 3
0 0 1 3
0 0 1.01 3
0 0 1.02 3
0 0 1.03 3
0 0 1.04 3
0 0 1.05 3
0 0 1.0599999 3
0 0 1.0699999 3
0 0 1.0799999 3
0 0 1.0899999 3
0 0 1.1 3
0 0 1.11 3
0 0 1.12 3
0 0 1.13 3
0 0 1.14 3
0 0 1.15 3
0 0 1.1600001 3
0 0 1.1700001 3
0 0 1.1800001 3
0 0 1.1900001 3
0 0 1.2 3
0 0 1.21 3
0 0 1.22 3
0 0 1.23 3
0 0 1.24 3
0 0 1.25 3
0 0 1.26 3
0 0 1.27 3
0 0 1.28 3
0 0 1.29 3
0 0 1.3 3
0 0 1.3099999 3
0 0 1.3199999 3
0 0 1.3299999 3
0 0 1.3399999 3
0 0 1.35 3
0 0 1.36 3
0 0 1.37 3
0 0 1.38 3
0 0 1.39 3
0 0 1.4 3
0 0 1.4100001 3
0 0 1.4200001 3
0 0 1.4300001 3
0 0 1.4400001 3
0 0 1.45 3
0 0 1.46 3
0 0 1.47 3
0 0 1.48 3
0 0 1.49 3
0.092387952 0.061731655 1 1
0.096214786 0.070970453 0.99907613 1
0.10004162 0.080209248 0.99815226 1
0.10386845 0.089448042 0.99722838 1
0.10769529 0.098686837 0.99630445 1
0.11152212 0.10792563 0.99538058 1
0.11534896 0.11716443 0.99445671 1
0.11917579 0.12640323 0.99353284 1
0.12300263 0.13564202 0.99260896 1
0.12682946 0.14488082 0.99168509 1
0.1306563 0.15411961 0.99076122 1
0.13448313 0.16335841 0.98983735 1
0.13830997 0.1725972 0.98891342 1
0.1421368 0.18183599 0.98798954 1
0.14596364 0.19107479 0.98706567 1
0.14979047 0.2003136 0.9861418 1
0.15361731 0.20955238 0.98521793 1
0.15744413 0.21879117 0.98429406 1
0.16127098 0.22802998 0.98337018 1
0.1650978 0.23726876 0.98244631 1
0.16892464 0.24650757 0.98152238 1
0.17275147 0.25574636 0.98059851 1
0.17657831 0.26498514 0.97967464 1
0.18040514 0.27422395 0.97875077 1
0.18423198 0.28346273 0.97782689 1
0.18805881 0.29270154 0.97690302 1
0.19188564 0.30194032 0.97597915 1
0.19571248 0.31117913 0.97505528 1
0.19953932 0.32041794 0.97413135 1
0.20336615 0.32965672 0.97320747 1
0.20719299 0.33889553 0.9722836 1
0.21101981 0.34813431 0.97135973 1
0.21484666 0.35737309 0.97043586 1
0.2186735 0.36661193 0.96951199 1
0.22250032 0.37585071 0.96858811 1
0.22632715 0.38508949 0.96766424 1
0.23015399 0.3943283 0.96674031 1
0.23398082 0.40356708 0.96581644 1
0.23780766 0.41280589 0.96489257 1
0.24163449 0.42204466 0.96396869 1
0.24546133 0.43128347 0.96304482 1
0.24928816 0.44052225 0.96212095 1
0.253115 0.44976106 0.96119708 1
0.25694183 0.45899987 0.96027321 1
0.26076865 0.46823865 0.95934927 1
0.26459548 0.47747743 0.9584254 1
0.26842234 0.48671624 0.95750153 1
0.27224916 0.49595505 0.95657766 1
0.27607599 0.50519383 0.95565379 1
0.27990285 0.51443261 0.95472991 1
0.28372967 0.52367145 0.95380604 1
0.2875565 0.53291023 0.95288217 1
0.29138333 0.54214901 0.95195824 1
0.29521015 0.55138779 0.95103437 1
0.29903701 0.56062663 0.9501105 1
0.30286384 0.56986541 0.94918662 1
0.30669066 0.57910419 0.94826275 1
0.31051752 0.58834296 0.94733888 1
0.31434435 0.59758174 0.94641501 1
0.31817117 0.60682058 0.94549114 1
0.32199803 0.61605942 0.9445672 1
0.32582486 0.6252982 0.94364333 1
0.32965168 0.63453698 0.94271946 1
0.33347851 0.64377576 0.94179559 1
0.33730534 0.65301454 0.94087172 1
0.34113216 0.66225332 0.93994784 1
0.34495902 0.67149216 0.93902397 1
0.34878585 0.68073094 0.9381001 1
0.3526127 0.68996972 0.93717617 1
0.35643953 0.69920856 0.9362523 1
0.36026636 0.70844734 0.93532842 1
0.36409318 0.71768612 0.93440455 1
0.36792004 0.72692496 0.93348068 1
0.37174687 0.73616374 0.93255681 1
0.37557369 0.74540251 0.93163294 1
0.37940052 0.75464129 0.93070906 1
0.38322735 0.76388007 0.92978513 1
0.38705418 0.77311885 0.92886126 1
0.39088103 0.78235769 0.92793739 1
0.39470786 0.79159653 0.92701352 1
0.39853472 0.80083531 0.92608964 1
0.40236154 0.81007409 0.92516577 1
0.40618837 0.81931287 0.9242419 1
0.4100152 0.82855165 0.92331803 1
0.41384202 0.83779043 0.9223941 1
0.41766888 0.84702927 0.92147022 1
0.42149571 0.85626805 0.92054635 1
0.42532253 0.86550683 0.91962248 1
0.42914936 0.87474567 0.91869861 1
0.43297622 0.88398445 0.91777474 1
0.43680304 0.89322323 0.91685086 1
0.4406299 0.90246207 0.91592693 1
0.44445673 0.91170084 0.91500306 1
0.44828355 0.92093962 0.91407919 1
0.45211038 0.9301784 0.91315532 1
0.45593721 0.93941718 0.91223145 1
0.45976403 0.94865596 0.91130757 1
0.46359089 0.9578948 0.9103837 1
0.46741772 0.96713364 0.90945983 1
0.47124454 0.97637242 0.9085359 1
0.092387952 0.061731655 1 2
0.083149157 0.065620221 1.0006173 2
0.073910363 0.069508791 1.0012347 2
0.064671569 0.073397353 1.0018519 2
0.055432774 0.077285923 1.0024693 2
0.046193976 0.081174485 1.0030866 2
0.036955182 0.085063055 1.003704 2
0.027716385 0.088951617 1.0043212 2
0.018477593 0.092840187 1.0049385 2
0.0092387917 0.09672875 1.0055559 2
-1.3766878e-09 0.10061732 1.0061731 2
-0.0092387944 0.10450588 1.0067905 2
-0.018477589 0.10839444 1.0074078 2
-0.027716381 0.11228301 1.0080252 2
-0.036955182 0.11617158 1.0086424 2
-0.046193983 0.12006015 1.0092597 2
-0.05543277 0.12394871 1.0098771 2
-0.064671569 0.12783729 1.0104944 2
-0.07391037 0.13172585 1.0111117 2
-0.083149157 0.13561441 1.011729 2
-0.092387959 0.13950297 1.0123464 2
-0.10162674 0.14339153 1.0129637 2
-0.11086554 0.14728011 1.0135809 2
-0.12010434 0.15116867 1.0141983 2
-0.12934312 0.15505724 1.0148156 2
-0.13858193 0.1589458 1.015433 2
-0.14782071 0.16283436 1.0160502 2
-0.15705954 0.16672294 1.0166676 2
-0.16629831 0.1706115 1.0172849 2
-0.17553711 0.17450006 1.0179021 2
-0.18477592 0.17838864 1.0185195 2
-0.1940147 0.1822772 1.0191368 2
-0.20325349 0.18616576 1.0197542 2
-0.2124923 0.19005434 1.0203714 2
-0.2217311 0.1939429 1.0209888 2
-0.23096988 0.19783147 1.0216061 2
-0.24020869 0.20172004 1.0222234 2
-0.24944748 0.20560861 1.0228407 2
-0.25868627 0.20949717 1.023458 2
-0.26792505 0.21338573 1.0240754 2
-0.27716386 0.21727429 1.0246927 2
-0.28640264 0.22116286 1.0253099 2
-0.29564145 0.22505142 1.0259273 2
-0.30488026 0.22894 1.0265446 2
-0.31411904 0.23282856 1.027162 2
-0.32335782 0.23671712 1.0277792 2
-0.33259663 0.2406057 1.0283966 2
-0.34183544 0.24449426 1.0290139 2
-0.35107422 0.24838282 1.0296311 2
-0.36031303 0.25227138 1.0302485 2
-0.36955181 0.25615996 1.0308658 2
-0.37879059 0.26004851 1.0314832 2
-0.3880294 0.26393709 1.0321004 2
-0.39726818 0.26782563 1.0327178 2
-0.40650702 0.27171424 1.0333351 2
-0.41574579 0.27560279 1.0339524 2
-0.42498457 0.27949136 1.0345697 2
-0.43422338 0.28337991 1.035187 2
-0.44346216 0.28726849 1.0358044 2
-0.45270094 0.29115704 1.0364217 2
-0.46193978 0.29504561 1.037039 2
-0.47117856 0.29893419 1.0376563 2
-0.48041737 0.30282274 1.0382736 2
-0.48965615 0.30671132 1.038891 2
-0.49889493 0.31059986 1.0395082 2
-0.50813371 0.31448844 1.0401256 2
-0.51737255 0.31837702 1.0407429 2
-0.52661133 0.3222656 1.0413603 2
-0.53585011 0.32615414 1.0419775 2
-0.54508895 0.33004272 1.0425948 2
-0.55432773 0.33393127 1.0432122 2
-0.56356651 0.33781984 1.0438294 2
-0.57280535 0.34170842 1.0444468 2
-0.58204412 0.34559697 1.0450641 2
-0.5912829 0.34948555 1.0456815 2
-0.60052168 0.35337409 1.0462987 2
-0.60976046 0.35726267 1.046916 2
-0.61899924 0.36115122 1.0475334 2
-0.62823808 0.3650398 1.0481507 2
-0.63747692 0.36892837 1.048768 2
-0.6467157 0.37281695 1.0493853 2
-0.65595448 0.3767055 1.0500027 2
-0.66519326 0.38059407 1.05062 2
-0.67443204 0.38448262 1.0512372 2
-0.68367082 0.3883712 1.0518546 2
-0.69290966 0.39225978 1.0524719 2
-0.70214844 0.39614832 1.0530893 2
-0.71138722 0.4000369 1.0537065 2
-0.72062606 0.40392545 1.0543239 2
-0.72986484 0.40781403 1.0549412 2
-0.73910362 0.41170257 1.0555584 2
-0.74834245 0.41559118 1.0561758 2
-0.75758123 0.41947973 1.0567931 2
-0.76682001 0.4233683 1.0574105 2
-0.77605879 0.42725685 1.0580277 2
-0.78529757 0.43114543 1.0586451 2
-0.79453635 0.43503398 1.0592624 2
-0.80377519 0.43892255 1.0598797 2
-0.81301403 0.44281113 1.060497 2
-0.82225281 0.44669968 1.0611143 2
0.092387952 0.061731655 1 3
0.093311831 0.062348973 1.01 3
0.094235711 0.062966287 1.02 3
0.09515959 0.063583605 1.03 3
0.09608347 0.064200923 1.04 3
0.097007349 0.064818241 1.05 3
0.097931229 0.065435559 1.0599999 3
0.098855108 0.066052876 1.0700001 3
0.099778987 0.066670187 1.08 3
0.10070287 0.067287505 1.09 3
0.10162675 0.067904823 1.1 3
0.10255063 0.06852214 1.11 3
0.10347451 0.069139458 1.12 3
0.10439838 0.069756769 1.13 3
0.10532226 0.070374086 1.14 3
0.10624614 0.070991404 1.15 3
0.10717002 0.071608722 1.16 3
0.1080939 0.07222604 1.17 3
0.10901778 0.072843358 1.1800001 3
0.10994166 0.073460668 1.1900001 3
0.11086554 0.074077986 1.2 3
0.11178942 0.074695304 1.21 3
0.1127133 0.075312622 1.22 3
0.11363719 0.07592994 1.23 3
0.11456106 0.076547258 1.24 3
0.11548494 0.077164568 1.25 3
0.11640882 0.077781886 1.26 3
0.1173327 0.078399204 1.27 3
0.11825658 0.079016522 1.28 3
0.11918046 0.079633839 1.29 3
0.12010434 0.080251157 1.3 3
0.12102822 0.080868468 1.3099999 3
0.12195209 0.081485786 1.3199999 3
0.12287598 0.082103103 1.33 3
0.12379986 0.082720421 1.34 3
0.12472374 0.083337739 1.35 3
0.12564762 0.083955057 1.36 3
0.12657149 0.084572367 1.37 3
0.12749538 0.085189685 1.38 3
0.12841925 0.085807003 1.39 3
0.12934314 0.086424321 1.4 3
0.13026701 0.087041639 1.41 3
0.1311909 0.087658949 1.42 3
0.13211477 0.088276267 1.4300001 3
0.13303865 0.088893585 1.4400001 3
0.13396253 0.089510903 1.45 3
0.13488641 0.090128221 1.46 3
0.13581029 0.090745538 1.47 3
0.13673417 0.091362849 1.48 3
0.13765804 0.091980167 1.49 3
0.13858193 0.092597485 1.5 3
0.1395058 0.093214802 1.51 3
0.14042969 0.09383212 1.52 3
0.14135356 0.094449431 1.53 3
0.14227745 0.095066756 1.54 3
0.14320132 0.095684066 1.55 3
0.14412521 0.096301384 1.5599999 3
0.14504908 0.096918702 1.5699999 3
0.14597297 0.09753602 1.5799999 3
0.14689684 0.09815333 1.5899999 3
0.14782073 0.098770656 1.6 3
0.14874461 0.099387966 1.61 3
0.14966848 0.10000528 1.62 3
0.15059236 0.1006226 1.63 3
0.15151624 0.10123992 1.64 3
0.15244012 0.10185723 1.65 3
0.153364 0.10247456 1.6600001 3
0.15428789 0.10309187 1.6700001 3
0.15521176 0.10370918 1.6800001 3
0.15613563 0.1043265 1.6900001 3
0.15705952 0.10494382 1.7 3
0.15798339 0.10556113 1.71 3
0.15890728 0.10617846 1.72 3
0.15983117 0.10679577 1.73 3
0.16075504 0.10741308 1.74 3
0.16167893 0.1080304 1.75 3
0.1626028 0.10864772 1.76 3
0.16352667 0.10926503 1.77 3
0.16445056 0.10988235 1.78 3
0.16537444 0.11049967 1.79 3
0.16629831 0.11111698 1.8 3
0.1672222 0.1117343 1.8099999 3
0.16814607 0.11235161 1.8199999 3
0.16906995 0.11296893 1.8299999 3
0.16999383 0.11358625 1.8399999 3
0.17091772 0.11420356 1.85 3
0.17184159 0.11482088 1.86 3
0.17276548 0.1154382 1.87 3
0.17368935 0.11605551 1.88 3
0.17461324 0.11667283 1.89 3
0.17553711 0.11729015 1.9 3
0.176461 0.11790746 1.9100001 3
0.17738487 0.11852478 1.9200001 3
0.17830876 0.1191421 1.9300001 3
0.17923263 0.11975941 1.9400001 3
0.18015651 0.12037673 1.95 3
0.18108039 0.12099405 1.96 3
0.18200427 0.12161136 1.97 3
0.18292814 0.12222868 1.98 3
0.18385203 0.122846 1.99 3
0.68150496 0.79793978 2.3 1
0.67994058 0.80781668 2.2970369 1
0.67837626 0.81769353 2.2940738 1
0.67681193 0.82757044 2.2911108 1
0.67524755 0.83744729 2.2881477 1
0.67368323 0.84732419 2.2851846 1
0.6721189 0.8572011 2.2822216 1
0.67055452 0.86707795 2.2792585 1
0.66899019 0.87695485 2.2762954 1
0.66742587 0.88683176 2.2733324 1
0.66586149 0.89670861 2.2703693 1
0.66429716 0.90658551 2.2674062 1
0.66273284 0.91646236 2.2644432 1
0.66116846 0.92633927 2.2614801 1
0.65960413 0.93621618 2.258517 1
0.65803981 0.94609302 2.255554 1
0.65647542 0.95596993 2.2525909 1
0.6549111 0.96584678 2.2496278 1
0.65334678 0.97572368 2.2466648 1
0.65178239 0.98560059 2.2437017 1
0.65021807 0.99547744 2.2407386 1
0.64865375 1.0053543 2.2377756 1
0.64708936 1.0152313 2.2348125 1
0.64552504 1.0251081 2.2318494 1
0.64396065 1.0349849 2.2288864 1
0.64239633 1.0448619 2.2259233 1
0.64083201 1.0547388 2.2229602 1
0.63926762 1.0646156 2.2199972 1
0.6377033 1.0744926 2.2170341 1
0.63613898 1.0843694 2.214071 1
0.63457459 1.0942463 2.211108 1
0.63301027 1.1041231 2.2081449 1
0.63144594 1.1140001 2.2051818 1
0.62988156 1.1238769 2.2022188 1
0.62831724 1.1337538 2.1992557 1
0.62675291 1.1436307 2.1962926 1
0.62518853 1.1535076 2.1933296 1
0.62362421 1.1633844 2.1903665 1
0.62205988 1.1732614 2.1874034 1
0.6204955 1.1831383 2.1844404 1
0.61893117 1.1930151 2.1814773 1
0.61736685 1.2028919 2.1785142 1
0.61580247 1.2127689 2.1755512 1
0.61423814 1.2226458 2.1725881 1
0.61267382 1.2325226 2.169625 1
0.61110944 1.2423996 2.166662 1
0.60954511 1.2522764 2.1636989 1
0.60798073 1.2621533 2.1607358 1
0.6064164 1.2720301 2.1577728 1
0.60485208 1.2819071 2.1548097 1
0.6032877 1.2917839 2.1518466 1
0.60172337 1.3016608 2.1488836 1
0.60015905 1.3115377 2.1459205 1
0.59859467 1.3214146 2.1429574 1
0.59703034 1.3312916 2.1399944 1
0.59546602 1.3411684 2.1370313 1
0.59390163 1.3510453 2.1340683 1
0.59233731 1.3609221 2.1311052 1
0.59077299 1.3707989 2.1281421 1
0.5892086 1.3806759 2.1251791 1
0.58764428 1.3905528 2.122216 1
0.58607996 1.4004297 2.1192529 1
0.58451557 1.4103066 2.1162899 1
0.58295125 1.4201834 2.1133268 1
0.58138692 1.4300603 2.110364 1
0.57982254 1.4399372 2.1074009 1
0.57825822 1.4498141 2.1044376 1
0.57669383 1.4596909 2.1014745 1
0.57512951 1.4695679 2.0985115 1
0.57356519 1.4794447 2.0955486 1
0.5720008 1.4893216 2.0925856 1
0.57043648 1.4991984 2.0896225 1
0.56887215 1.5090754 2.0866592 1
0.56730777 1.5189523 2.0836964 1
0.56574345 1.5288292 2.0807333 1
0.56417912 1.5387061 2.0777702 1
0.56261474 1.5485829 2.0748072 1
0.56105042 1.5584598 2.0718441 1
0.55948609 1.5683366 2.068881 1
0.55792171 1.5782136 2.065918 1
0.55635738 1.5880904 2.0629549 1
0.55479306 1.5979674 2.0599918 1
0.55322868 1.6078442 2.0570288 1
0.55166435 1.6177211 2.0540657 1
0.55010003 1.6275979 2.0511026 1
0.54853565 1.6374749 2.0481396 1
0.54697132 1.6473517 2.0451765 1
0.545407 1.6572286 2.0422134 1
0.54384261 1.6671056 2.0392504 1
0.54227829 1.6769824 2.0362873 1
0.54071397 1.6868593 2.0333242 1
0.53914958 1.6967362 2.0303612 1
0.53758526 1.7066131 2.0273981 1
0.53602087 1.7164899 2.024435 1
0.53445655 1.7263669 2.021472 1
0.53289223 1.7362437 2.0185089 1
0.53132784 1.7461206 2.0155458 1
0.52976352 1.7559975 2.0125828 1
0.5281992 1.7658744 2.0096197 1
0.52663481 1.7757512 2.0066566 1
0.68150496 0.79793978 2.3 2
0.67162806 0.79741621 2.3034694 2
0.66175121 0.7968927 2.3069386 2
0.6518743 0.79636914 2.3104079 2
0.6419974 0.79584557 2.3138771 2
0.63212055 0.795322 2.3173466 2
0.62224364 0.79479843 2.3208158 2
0.6123668 0.79427493 2.324285 2
0.60248989 0.79375136 2.3277545 2
0.59261298 0.79322779 2.3312237 2
0.58273613 0.79270422 2.334693 2
0.57285923 0.79218072 2.3381624 2
0.56298238 0.79165715 2.3416317 2
0.55310547 0.79113358 2.3451009 2
0.54322857 0.79061002 2.3485703 2
0.53335172 0.79008645 2.3520396 2
0.52347481 0.78956294 2.3555088 2
0.51359791 0.78903937 2.3589783 2
0.50372106 0.78851581 2.3624475 2
0.49384418 0.78799224 2.3659167 2
0.48396727 0.78746873 2.369386 2
0.4740904 0.78694516 2.3728554 2
0.46421352 0.7864216 2.3763247 2
0.45433664 0.78589803 2.3797939 2
0.44445977 0.78537452 2.3832633 2
0.43458286 0.78485096 2.3867326 2
0.42470598 0.78432739 2.3902018 2
0.41482911 0.78380382 2.3936713 2
0.40495223 0.78328025 2.3971405 2
0.39507535 0.78275675 2.4006097 2
0.38519844 0.78223318 2.4040792 2
0.37532157 0.78170961 2.4075484 2
0.36544469 0.78118604 2.4110177 2
0.35556778 0.78066254 2.4144871 2
0.34569091 0.78013897 2.4179564 2
0.33581403 0.7796154 2.4214256 2
0.32593715 0.77909184 2.4248948 2
0.31606027 0.77856827 2.4283643 2
0.3061834 0.77804476 2.4318335 2
0.29630652 0.77752119 2.4353027 2
0.28642961 0.77699763 2.4387722 2
0.27655274 0.77647406 2.4422414 2
0.26667586 0.77595055 2.4457107 2
0.25679895 0.77542698 2.4491801 2
0.24692209 0.77490342 2.4526494 2
0.23704521 0.77437985 2.4561186 2
0.22716831 0.77385634 2.4595881 2
0.21729143 0.77333277 2.4630573 2
0.20741457 0.77280921 2.4665265 2
0.19753766 0.77228564 2.469996 2
0.18766078 0.77176207 2.4734652 2
0.17778391 0.77123857 2.4769344 2
0.16790703 0.770715 2.4804037 2
0.15803017 0.77019143 2.4838731 2
0.14815323 0.76966786 2.4873424 2
0.13827635 0.76914436 2.4908116 2
0.12839948 0.76862079 2.4942811 2
0.11852261 0.76809722 2.4977503 2
0.10864574 0.76757365 2.5012195 2
0.09876886 0.76705015 2.504689 2
0.088891923 0.76652658 2.5081582 2
0.079015054 0.76600301 2.5116274 2
0.069138177 0.76547945 2.5150969 2
0.059261303 0.76495588 2.5185661 2
0.04938443 0.76443237 2.5220354 2
0.039507557 0.7639088 2.5255048 2
0.029630624 0.76338524 2.5289741 2
0.01975375 0.76286167 2.5324433 2
0.0098768761 0.76233816 2.5359128 2
2.3548323e-09 0.76181459 2.539382 2
-0.0098768715 0.76129103 2.5428512 2
-0.019753745 0.76076746 2.5463204 2
-0.029630678 0.76024389 2.5497899 2
-0.039507553 0.75972039 2.5532591 2
-0.049384426 0.75919682 2.5567284 2
-0.0592613 0.75867325 2.5601978 2
-0.069138177 0.75814968 2.5636671 2
-0.079015046 0.75762618 2.5671363 2
-0.088891923 0.75710261 2.5706058 2
-0.098768853 0.75657904 2.574075 2
-0.10864573 0.75605547 2.5775442 2
-0.11852261 0.75553191 2.5810137 2
-0.12839948 0.7550084 2.5844829 2
-0.13827635 0.75448483 2.5879521 2
-0.14815323 0.75396127 2.5914214 2
-0.15803015 0.7534377 2.5948908 2
-0.16790703 0.75291419 2.5983601 2
-0.17778391 0.75239062 2.6018293 2
-0.18766078 0.75186706 2.6052988 2
-0.19753766 0.75134349 2.608768 2
-0.20741452 0.75081998 2.6122372 2
-0.21729146 0.75029641 2.6157067 2
-0.22716834 0.74977285 2.6191759 2
-0.23704521 0.74924928 2.6226451 2
-0.24692208 0.74872571 2.6261146 2
-0.25679895 0.7482022 2.6295838 2
-0.26667583 0.74767864 2.6330531 2
-0.27655277 0.74715507 2.6365225 2
-0.28642964 0.7466315 2.6399918 2
-0.29630652 0.746108 2.643461 2
0.68150496 0.79793978 2.3 3
0.68446803 0.80140907 2.3099999 3
0.6874311 0.80487841 2.3199999 3
0.69039416 0.8083477 2.3299999 3
0.69335723 0.81181699 2.3399999 3
0.6963203 0.81528628 2.3499999 3
0.69928336 0.81875563 2.3599999 3
0.70224643 0.82222492 2.3699999 3
0.70520949 0.8256942 2.3800001 3
0.70817256 0.82916349 2.3900001 3
0.71113563 0.83263284 2.4000001 3
0.71409869 0.83610213 2.4100001 3
0.71706176 0.83957142 2.4200001 3
0.72002482 0.8430407 2.4300001 3
0.72298789 0.84651005 2.4400001 3
0.72595096 0.84997934 2.45 3
0.72891402 0.85344863 2.46 3
0.73187709 0.85691792 2.47 3
0.73484015 0.86038727 2.48 3
0.73780316 0.86385655 2.49 3
0.74076623 0.86732584 2.5 3
0.74372929 0.87079513 2.51 3
0.74669236 0.87426448 2.52 3
0.74965543 0.87773377 2.53 3
0.75261849 0.88120306 2.54 3
0.75558156 0.88467234 2.55 3
0.75854462 0.88814169 2.5599999 3
0.76150769 0.89161098 2.5699999 3
0.76447076 0.89508027 2.5799999 3
0.76743382 0.89854956 2.5899999 3
0.77039689 0.9020189 2.5999999 3
0.77335995 0.90548819 2.6099999 3
0.77632302 0.90895748 2.6199999 3
0.77928609 0.91242677 2.6300001 3
0.78224915 0.91589612 2.6400001 3
0.78521222 0.91936541 2.6500001 3
0.78817528 0.92283469 2.6600001 3
0.79113835 0.92630398 2.6700001 3
0.79410142 0.92977333 2.6800001 3
0.79706448 0.93324262 2.6900001 3
0.80002755 0.93671191 2.7 3
0.80299062 0.9401812 2.71 3
0.80595368 0.94365054 2.72 3
0.80891675 0.94711983 2.73 3
0.81187981 0.95058912 2.74 3
0.81484288 0.95405841 2.75 3
0.81780595 0.95752776 2.76 3
0.82076901 0.96099705 2.77 3
0.82373208 0.96446633 2.78 3
0.82669514 0.96793562 2.79 3
0.82965821 0.97140497 2.8 3
0.83262128 0.97487426 2.8099999 3
0.83558434 0.97834355 2.8199999 3
0.83854741 0.98181283 2.8299999 3
0.84151047 0.98528218 2.8399999 3
0.84447354 0.98875147 2.8499999 3
0.84743661 0.99222076 2.8599999 3
0.85039967 0.99569005 2.8699999 3
0.85336274 0.9991594 2.8799999 3
0.85632581 1.0026287 2.8899999 3
0.85928887 1.006098 2.9000001 3
0.86225194 1.0095673 2.9100001 3
0.865215 1.0130366 2.9200001 3
0.86817807 1.0165058 2.9300001 3
0.87114114 1.0199752 2.9400001 3
0.8741042 1.0234445 2.95 3
0.87706727 1.0269138 2.96 3
0.88003033 1.0303831 2.97 3
0.8829934 1.0338525 2.98 3
0.88595647 1.0373217 2.99 3
0.88891953 1.040791 3 3
0.89188254 1.0442603 3.01 3
0.89484566 1.0477296 3.02 3
0.89780873 1.051199 3.03 3
0.9007718 1.0546682 3.04 3
0.9037348 1.0581375 3.05 3
0.90669787 1.0616069 3.0599999 3
0.90966094 1.0650761 3.0699999 3
0.912624 1.0685455 3.0799999 3
0.91558713 1.0720148 3.0899999 3
0.91855013 1.075484 3.0999999 3
0.9215132 1.0789534 3.1099999 3
0.92447627 1.0824226 3.1199999 3
0.92743933 1.085892 3.1299999 3
0.9304024 1.0893613 3.1399999 3
0.93336546 1.0928305 3.1500001 3
0.93632853 1.0962999 3.1600001 3
0.9392916 1.0997692 3.1700001 3
0.94225466 1.1032385 3.1800001 3
0.94521773 1.1067078 3.1900001 3
0.94818079 1.110177 3.2 3
0.95114386 1.1136464 3.21 3
0.95410693 1.1171157 3.22 3
0.95706999 1.120585 3.23 3
0.96003306 1.1240543 3.24 3
0.96299613 1.1275235 3.25 3
0.96595919 1.1309929 3.26 3
0.96892226 1.1344622 3.27 3
0.97188532 1.1379315 3.28 3
0.97484839 1.1414008 3.29 3
3.3466814 -1.0874027 3.7 1
3.3431139 -1.0815248 3.7090452 1
3.3395462 -1.075647 3.7180901 1
3.3359785 -1.0697691 3.7271352 1
3.3324108 -1.0638913 3.7361803 1
3.3288434 -1.0580134 3.7452254 1
3.3252757 -1.0521356 3.7542706 1
3.321708 -1.0462577 3.7633157 1
3.3181405 -1.0403799 3.7723606 1
3.3145728 -1.034502 3.7814057 1
3.3110051 -1.0286242 3.7904508 1
3.3074374 -1.0227463 3.7994959 1
3.30387 -1.0168685 3.8085411 1
3.3003023 -1.0109906 3.8175862 1
3.2967346 -1.0051128 3.8266313 1
3.2931671 -0.99923491 3.8356762 1
3.2895994 -0.99335706 3.8447213 1
3.2860317 -0.98747921 3.8537664 1
3.282464 -0.98160136 3.8628116 1
3.2788966 -0.97572351 3.8718567 1
3.2753289 -0.96984565 3.8809018 1
3.2717612 -0.9639678 3.8899467 1
3.2681937 -0.95808995 3.8989918 1
3.264626 -0.9522121 3.9080369 1
3.2610583 -0.94633424 3.9170821 1
3.2574906 -0.94045639 3.9261272 1
3.2539232 -0.93457854 3.9351723 1
3.2503555 -0.92870069 3.9442172 1
3.2467878 -0.92282283 3.9532623 1
3.2432203 -0.91694498 3.9623075 1
3.2396526 -0.91106713 3.9713526 1
3.2360849 -0.90518928 3.9803977 1
3.2325175 -0.89931142 3.9894428 1
3.2289498 -0.89343357 3.9984877 1
3.2253821 -0.88755572 4.0075331 1
3.2218144 -0.88167787 4.0165782 1
3.2182469 -0.87580001 4.0256228 1
3.2146792 -0.86992216 4.034668 1
3.2111115 -0.86404431 4.0437131 1
3.2075441 -0.85816646 4.0527582 1
3.2039764 -0.8522886 4.0618033 1
3.2004087 -0.84641075 4.0708485 1
3.196841 -0.8405329 4.0798936 1
3.1932735 -0.83465505 4.0889387 1
3.1897058 -0.82877719 4.0979838 1
3.1861382 -0.82289934 4.107029 1
3.1825705 -0.81702149 4.1160741 1
3.179003 -0.81114364 4.1251192 1
3.1754353 -0.80526578 4.1341639 1
3.1718676 -0.79938793 4.143209 1
3.1683002 -0.79351008 4.1522541 1
3.1647325 -0.78763223 4.1612992 1
3.1611648 -0.78175437 4.1703444 1
3.1575973 -0.77587652 4.1793895 1
3.1540296 -0.76999867 4.1884346 1
3.1504619 -0.76412082 4.1974797 1
3.1468942 -0.75824296 4.2065248 1
3.1433268 -0.75236511 4.21557 1
3.1397591 -0.74648726 4.2246151 1
3.1361914 -0.74060941 4.2336602 1
3.1326237 -0.73473155 4.2427053 1
3.1290562 -0.7288537 4.25175 1
3.1254885 -0.72297585 4.2607951 1
3.1219208 -0.717098 4.2698402 1
3.1183534 -0.71122015 4.2788854 1
3.1147857 -0.70534229 4.2879305 1
3.111218 -0.69946444 4.2969756 1
3.1076503 -0.69358659 4.3060207 1
3.1040828 -0.68770874 4.3150659 1
3.1005151 -0.68183088 4.324111 1
3.0969474 -0.67595303 4.3331561 1
3.09338 -0.67007518 4.3422012 1
3.0898123 -0.66419733 4.3512464 1
3.0862446 -0.65831947 4.360291 1
3.0826769 -0.65244162 4.3693361 1
3.0791094 -0.64656377 4.3783813 1
3.0755417 -0.64068592 4.3874264 1
3.071974 -0.63480806 4.3964715 1
3.0684066 -0.62893021 4.4055166 1
3.0648389 -0.62305236 4.4145617 1
3.0612712 -0.61717451 4.4236069 1
3.0577037 -0.61129665 4.432652 1
3.054136 -0.6054188 4.4416971 1
3.0505683 -0.59954095 4.4507422 1
3.0470006 -0.5936631 4.4597869 1
3.0434332 -0.58778524 4.468832 1
3.0398655 -0.58190739 4.4778771 1
3.0362978 -0.57602954 4.4869223 1
3.0327303 -0.57015169 4.4959674 1
3.0291626 -0.56427383 4.5050125 1
3.0255949 -0.55839598 4.5140576 1
3.0220273 -0.55251813 4.5231028 1
3.0184598 -0.54664028 4.5321479 1
3.0148921 -0.54076242 4.541193 1
3.0113244 -0.53488457 4.5502381 1
3.0077569 -0.52900672 4.5592833 1
3.0041893 -0.52312887 4.5683279 1
3.0006216 -0.51725101 4.5773735 1
2.9970539 -0.51137316 4.5864182 1
2.9934864 -0.50549531 4.5954633 1
3.3466814 -1.0874027 3.7 2
3.3408036 -1.0954928 3.702939 2
3.3349257 -1.1035831 3.7058778 2
3.3290479 -1.1116732 3.7088168 2
3.3231699 -1.1197634 3.7117558 2
3.3172922 -1.1278535 3.7146947 2
3.3114142 -1.1359438 3.7176335 2
3.3055365 -1.1440339 3.7205725 2
3.2996585 -1.152124 3.7235115 2
3.2937808 -1.1602143 3.7264504 2
3.2879028 -1.1683044 3.7293892 2
3.2820251 -1.1763946 3.7323282 2
3.2761471 -1.1844847 3.7352672 2
3.2702694 -1.192575 3.7382061 2
3.2643914 -1.2006651 3.7411449 2
3.2585137 -1.2087553 3.7440839 2
3.2526357 -1.2168454 3.7470229 2
3.246758 -1.2249357 3.7499619 2
3.24088 -1.2330258 3.7529006 2
3.2350023 -1.2411159 3.7558396 2
3.2291243 -1.2492061 3.7587786 2
3.2232466 -1.2572963 3.7617176 2
3.2173686 -1.2653865 3.7646563 2
3.2114909 -1.2734766 3.7675953 2
3.2056129 -1.2815667 3.7705343 2
3.1997352 -1.289657 3.7734733 2
3.1938572 -1.2977471 3.776412 2
3.1879795 -1.3058373 3.779351 2
3.1821015 -1.3139275 3.78229 2
3.1762238 -1.3220177 3.785229 2
3.1703458 -1.3301078 3.7881677 2
3.1644681 -1.3381979 3.7911067 2
3.1585901 -1.3462882 3.7940457 2
3.1527123 -1.3543783 3.7969847 2
3.1468344 -1.3624685 3.7999234 2
3.1409566 -1.3705586 3.8028624 2
3.1350787 -1.3786489 3.8058014 2
3.1292009 -1.386739 3.8087404 2
3.123323 -1.3948292 3.8116791 2
3.1174452 -1.4029193 3.8146181 2
3.1115673 -1.4110096 3.8175571 2
3.1056895 -1.4190997 3.8204961 2
3.0998116 -1.4271898 3.8234348 2
3.0939338 -1.4352801 3.8263738 2
3.0880558 -1.4433702 3.8293128 2
3.0821781 -1.4514604 3.8322518 2
3.0763001 -1.4595505 3.8351905 2
3.0704224 -1.4676408 3.8381295 2
3.0645444 -1.4757309 3.8410685 2
3.0586667 -1.483821 3.8440075 2
3.0527887 -1.4919112 3.8469462 2
3.046911 -1.5000014 3.8498852 2
3.041033 -1.5080916 3.8528242 2
3.0351553 -1.5161817 3.8557632 2
3.0292773 -1.524272 3.8587019 2
3.0233996 -1.5323621 3.8616409 2
3.0175216 -1.5404522 3.8645799 2
3.0116439 -1.5485424 3.8675189 2
3.0057659 -1.5566325 3.8704576 2
2.9998882 -1.5647228 3.8733966 2
2.9940102 -1.5728129 3.8763356 2
2.9881325 -1.5809031 3.8792746 2
2.9822545 -1.5889933 3.8822134 2
2.9763768 -1.5970834 3.8851523 2
2.9704988 -1.6051736 3.8880913 2
2.9646211 -1.6132637 3.8910303 2
2.9587431 -1.621354 3.8939691 2
2.9528654 -1.6294441 3.896908 2
2.9469874 -1.6375343 3.899847 2
2.9411097 -1.6456244 3.902786 2
2.9352317 -1.6537147 3.9057248 2
2.929354 -1.6618048 3.9086637 2
2.923476 -1.6698949 3.9116027 2
2.9175982 -1.6779852 3.9145417 2
2.9117203 -1.6860753 3.9174805 2
2.9058425 -1.6941655 3.9204195 2
2.8999646 -1.7022556 3.9233584 2
2.8940868 -1.7103457 3.9262974 2
2.8882089 -1.718436 3.9292362 2
2.8823311 -1.7265261 3.9321752 2
2.8764532 -1.7346163 3.9351141 2
2.8705754 -1.7427065 3.9380531 2
2.8646975 -1.7507967 3.9409919 2
2.8588197 -1.7588868 3.9439309 2
2.8529418 -1.766977 3.9468699 2
2.847064 -1.7750672 3.9498088 2
2.841186 -1.7831573 3.9527476 2
2.8353083 -1.7912475 3.9556866 2
2.8294303 -1.7993376 3.9586256 2
2.8235526 -1.8074279 3.9615645 2
2.8176746 -1.815518 3.9645033 2
2.8117969 -1.8236082 3.9674423 2
2.8059189 -1.8316984 3.9703813 2
2.8000412 -1.8397886 3.9733202 2
2.7941632 -1.8478787 3.976259 2
2.7882855 -1.8559688 3.979198 2
2.7824075 -1.864059 3.982137 2
2.7765298 -1.8721492 3.985076 2
2.7706518 -1.8802394 3.9880147 2
2.7647741 -1.8883295 3.9909537 2
3.3466814 -1.0874027 3.7 3
3.3557265 -1.0903417 3.71 3
3.3647716 -1.0932806 3.72 3
3.3738167 -1.0962195 3.73 3
3.3828619 -1.0991584 3.74 3
3.391907 -1.1020974 3.75 3
3.4009519 -1.1050363 3.76 3
3.409997 -1.1079752 3.77 3
3.4190421 -1.1109141 3.78 3
3.4280872 -1.1138531 3.79 3
3.4371324 -1.116792 3.8 3
3.4461775 -1.1197309 3.8099999 3
3.4552224 -1.1226698 3.8199999 3
3.4642675 -1.1256088 3.8299999 3
3.4733126 -1.1285477 3.8399999 3
3.4823577 -1.1314867 3.8499999 3
3.4914029 -1.1344255 3.8599999 3
3.500448 -1.1373645 3.8699999 3
3.5094929 -1.1403034 3.8800001 3
3.518538 -1.1432424 3.8900001 3
3.5275831 -1.1461812 3.9000001 3
3.5366282 -1.1491202 3.9100001 3
3.5456734 -1.1520591 3.9200001 3
3.5547185 -1.1549981 3.9300001 3
3.5637634 -1.1579369 3.9400001 3
3.5728085 -1.1608759 3.95 3
3.5818536 -1.1638148 3.96 3
3.5908988 -1.1667538 3.97 3
3.5999439 -1.1696926 3.98 3
3.608989 -1.1726316 3.99 3
3.6180339 -1.1755705 4 3
3.627079 -1.1785095 4.0100002 3
3.6361241 -1.1814483 4.02 3
3.6451693 -1.1843873 4.0300002 3
3.6542144 -1.1873262 4.04 3
3.6632595 -1.1902652 4.0500002 3
3.6723046 -1.193204 4.0599999 3
3.6813495 -1.196143 4.0700002 3
3.6903946 -1.1990819 4.0799999 3
3.6994398 -1.2020209 4.0900002 3
3.7084849 -1.2049598 4.0999999 3
3.71753 -1.2078987 4.1100001 3
3.7265749 -1.2108376 4.1199999 3
3.73562 -1.2137766 4.1300001 3
3.7446651 -1.2167155 4.1399999 3
3.7537103 -1.2196544 4.1500001 3
3.7627554 -1.2225933 4.1599998 3
3.7718005 -1.2255323 4.1700001 3
3.7808454 -1.2284712 4.1799998 3
3.7898905 -1.2314101 4.1900001 3
3.7989357 -1.234349 4.1999998 3
3.8079808 -1.237288 4.21 3
3.8170259 -1.2402269 4.2199998 3
3.826071 -1.2431659 4.23 3
3.8351161 -1.2461047 4.2400002 3
3.844161 -1.2490437 4.25 3
3.8532062 -1.2519826 4.2600002 3
3.8622513 -1.2549216 4.27 3
3.8712964 -1.2578604 4.2800002 3
3.8803415 -1.2607994 4.29 3
3.8893867 -1.2637383 4.3000002 3
3.8984315 -1.2666773 4.3099999 3
3.9074767 -1.2696161 4.3200002 3
3.9165218 -1.2725551 4.3299999 3
3.9255669 -1.275494 4.3400002 3
3.934612 -1.278433 4.3499999 3
3.9436572 -1.2813718 4.3600001 3
3.952702 -1.2843108 4.3699999 3
3.9617472 -1.2872497 4.3800001 3
3.9707923 -1.2901887 4.3899999 3
3.9798374 -1.2931275 4.4000001 3
3.9888825 -1.2960665 4.4099998 3
3.9979277 -1.2990054 4.4200001 3
4.0069728 -1.3019444 4.4299998 3
4.0160179 -1.3048832 4.4400001 3
4.025063 -1.3078222 4.4499998 3
4.0341077 -1.3107611 4.46 3
4.0431528 -1.3137001 4.4699998 3
4.0521979 -1.3166389 4.48 3
4.0612431 -1.3195779 4.4900002 3
4.0702882 -1.3225168 4.5 3
4.0793333 -1.3254558 4.5100002 3
4.0883784 -1.3283947 4.52 3
4.0974236 -1.3313336 4.5300002 3
4.1064687 -1.3342725 4.54 3
4.1155138 -1.3372115 4.5500002 3
4.1245589 -1.3401504 4.5599999 3
4.133604 -1.3430893 4.5700002 3
4.1426487 -1.3460282 4.5799999 3
4.1516938 -1.3489672 4.5900002 3
4.1607389 -1.3519061 4.5999999 3
4.1697841 -1.354845 4.6100001 3
4.1788292 -1.3577839 4.6199999 3
4.1878743 -1.3607229 4.6300001 3
4.1969194 -1.3636618 4.6399999 3
4.2059646 -1.3666008 4.6500001 3
4.2150097 -1.3695396 4.6599998 3
4.2240548 -1.3724786 4.6700001 3
4.2330999 -1.3754175 4.6799998 3
4.2421451 -1.3783565 4.6900001 3
-0.19885761 -0.8161779 3.8993835 1
-0.19921081 -0.80620873 3.9015403 1
-0.19956402 -0.79623955 3.9036973 1
-0.19991723 -0.78627038 3.9058542 1
-0.20027043 -0.77630121 3.9080112 1
-0.20062365 -0.76633203 3.9101682 1
-0.20097685 -0.75636286 3.9123249 1
-0.20133005 -0.74639368 3.9144819 1
-0.20168327 -0.73642457 3.9166389 1
-0.20203647 -0.72645533 3.9187958 1
-0.20238967 -0.71648622 3.9209526 1
-0.20274289 -0.70651704 3.9231095 1
-0.20309609 -0.69654787 3.9252665 1
-0.20344929 -0.68657869 3.9274235 1
-0.20380251 -0.67660952 3.9295802 1
-0.20415571 -0.66664034 3.9317372 1
-0.20450892 -0.65667117 3.9338942 1
-0.20486213 -0.64670199 3.9360511 1
-0.20521533 -0.63673282 3.9382081 1
-0.20556854 -0.62676364 3.9403648 1
-0.20592175 -0.61679447 3.9425218 1
-0.20627496 -0.60682529 3.9446788 1
-0.20662816 -0.59685612 3.9468358 1
-0.20698138 -0.58688694 3.9489925 1
-0.20733458 -0.57691777 3.9511495 1
-0.20768778 -0.56694859 3.9533064 1
-0.208041 -0.55697942 3.9554634 1
-0.2083942 -0.54701024 3.9576201 1
-0.2087474 -0.53704107 3.9597771 1
-0.20910062 -0.52707189 3.9619341 1
-0.20945382 -0.51710272 3.9640911 1
-0.20980702 -0.50713354 3.966248 1
-0.21016024 -0.49716437 3.9684048 1
-0.21051344 -0.48719519 3.9705617 1
-0.21086664 -0.47722602 3.9727187 1
-0.21121986 -0.46725687 3.9748757 1
-0.21157306 -0.45728767 3.9770324 1
-0.21192627 -0.44731849 3.9791894 1
-0.21227948 -0.43734935 3.9813464 1
-0.21263269 -0.42738017 3.9835033 1
-0.2129859 -0.41741097 3.9856603 1
-0.21333911 -0.40744182 3.987817 1
-0.21369231 -0.39747265 3.989974 1
-0.21404552 -0.38750347 3.992131 1
-0.21439873 -0.3775343 3.994288 1
-0.21475193 -0.36756513 3.9964447 1
-0.21510515 -0.35759595 3.9986017 1
-0.21545835 -0.34762678 4.0007586 1
-0.21581155 -0.3376576 4.0029154 1
-0.21616477 -0.32768843 4.0050726 1
-0.21651797 -0.31771925 4.0072293 1
-0.21687117 -0.30775011 4.0093861 1
-0.21722439 -0.29778093 4.0115433 1
-0.21757759 -0.28781176 4.0137 1
-0.21793079 -0.27784255 4.0158572 1
-0.21828401 -0.26787338 4.018014 1
-0.21863721 -0.2579042 4.0201707 1
-0.21899042 -0.24793506 4.0223279 1
-0.21934363 -0.23796588 4.0244846 1
-0.21969683 -0.22799672 4.0266418 1
-0.22005004 -0.2180275 4.0287986 1
-0.22040325 -0.20805833 4.0309553 1
-0.22075646 -0.19808917 4.0331125 1
-0.22110966 -0.18812001 4.0352693 1
-0.22146288 -0.17815085 4.037426 1
-0.22181608 -0.16818167 4.0395832 1
-0.22216928 -0.15821245 4.0417399 1
-0.2225225 -0.14824329 4.0438972 1
-0.2228757 -0.13827413 4.0460539 1
-0.2232289 -0.12830496 4.0482106 1
-0.22358212 -0.1183358 4.0503678 1
-0.22393532 -0.10836664 4.0525246 1
-0.22428854 -0.098397411 4.0546818 1
-0.22464174 -0.088428251 4.0568385 1
-0.22499494 -0.078459084 4.0589952 1
-0.22534814 -0.068489924 4.0611525 1
-0.22570136 -0.05852076 4.0633092 1
-0.22605456 -0.048551593 4.0654659 1
-0.22640777 -0.038582429 4.0676231 1
-0.22676098 -0.028613208 4.0697799 1
-0.22711419 -0.018644044 4.0719371 1
-0.2274674 -0.0086748796 4.0740938 1
-0.22782061 0.0012942839 4.0762506 1
-0.22817381 0.011263448 4.0784078 1
-0.22852701 0.021232612 4.0805645 1
-0.22888023 0.031201834 4.0827217 1
-0.22923343 0.041170999 4.0848784 1
-0.22958665 0.051140163 4.0870352 1
-0.22993985 0.061109327 4.0891924 1
-0.23029305 0.071078487 4.0913491 1
-0.23064627 0.081047654 4.0935063 1
-0.23099947 0.091016874 4.0956631 1
-0.23135267 0.10098604 4.0978198 1
-0.23170589 0.1109552 4.099977 1
-0.23205909 0.12092437 4.1021338 1
-0.23241229 0.13089353 4.1042905 1
-0.23276551 0.1408627 4.1064477 1
-0.23311871 0.15083192 4.1086044 1
-0.23347192 0.16080108 4.1107616 1
-0.23382513 0.17077024 4.1129184 1
-0.19885761 -0.8161779 3.8993835 2
-0.20882678 -0.81696254 3.9013772 2
-0.21879596 -0.81774712 3.9033711 2
-0.22876512 -0.81853169 3.905365 2
-0.23873429 -0.81931627 3.9073589 2
-0.24870346 -0.8201009 3.9093525 2
-0.25867265 -0.82088548 3.9113464 2
-0.26864183 -0.82167006 3.9133403 2
-0.27861097 -0.82245463 3.9153342 2
-0.28858018 -0.82323927 3.9173279 2
-0.29854932 -0.82402384 3.9193218 2
-0.3085185 -0.82480842 3.9213157 2
-0.31848767 -0.82559299 3.9233096 2
-0.32845685 -0.82637763 3.9253032 2
-0.33842602 -0.82716221 3.9272971 2
-0.3483952 -0.82794678 3.929291 2
-0.35836437 -0.82873136 3.9312849 2
-0.36833355 -0.82951599 3.9332786 2
-0.37830272 -0.83030057 3.9352725 2
-0.3882719 -0.83108515 3.9372663 2
-0.39824107 -0.83186972 3.9392602 2
-0.40821025 -0.83265436 3.9412539 2
-0.41817942 -0.83343893 3.9432478 2
-0.4281486 -0.83422351 3.9452417 2
-0.43811777 -0.83500808 3.9472356 2
-0.44808695 -0.83579272 3.9492292 2
-0.45805609 -0.8365773 3.9512231 2
-0.4680253 -0.83736187 3.953217 2
-0.47799447 -0.83814645 3.9552109 2
-0.48796362 -0.83893108 3.9572046 2
-0.49793282 -0.83971566 3.9591985 2
-0.50790197 -0.84050024 3.9611924 2
-0.51787114 -0.84128481 3.9631863 2
-0.52784032 -0.84206945 3.9651799 2
-0.53780949 -0.84285402 3.9671738 2
-0.54777867 -0.8436386 3.9691677 2
-0.55774784 -0.84442317 3.9711616 2
-0.56771702 -0.84520781 3.9731553 2
-0.57768619 -0.84599239 3.9751492 2
-0.58765537 -0.84677696 3.977143 2
-0.59762454 -0.84756154 3.9791369 2
-0.60759372 -0.84834617 3.9811306 2
-0.61756289 -0.84913075 3.9831245 2
-0.62753206 -0.84991533 3.9851184 2
-0.63750124 -0.8506999 3.9871123 2
-0.64747041 -0.85148454 3.9891059 2
-0.65743959 -0.85226911 3.9910998 2
-0.66740876 -0.85305369 3.9930937 2
-0.67737794 -0.85383826 3.9950876 2
-0.68734711 -0.8546229 3.9970813 2
-0.69731629 -0.85540748 3.9990752 2
-0.7072854 -0.85619205 4.0010691 2
-0.71725458 -0.85697663 4.0030627 2
-0.72722375 -0.85776126 4.0050569 2
-0.73719299 -0.85854584 4.0070505 2
-0.74716216 -0.85933042 4.0090442 2
-0.75713134 -0.86011499 4.0110383 2
-0.76710045 -0.86089963 4.013032 2
-0.77706963 -0.8616842 4.0150261 2
-0.7870388 -0.86246878 4.0170197 2
-0.79700804 -0.86325336 4.0190134 2
-0.80697721 -0.86403799 4.0210075 2
-0.81694633 -0.86482257 4.0230012 2
-0.8269155 -0.86560714 4.0249949 2
-0.83688468 -0.86639172 4.026989 2
-0.84685385 -0.86717635 4.0289826 2
-0.85682309 -0.86796093 4.0309768 2
-0.86679226 -0.86874551 4.0329704 2
-0.87676138 -0.86953008 4.0349641 2
-0.88673055 -0.87031472 4.0369582 2
-0.89669973 -0.87109929 4.0389519 2
-0.9066689 -0.87188387 4.0409455 2
-0.91663814 -0.87266845 4.0429397 2
-0.92660725 -0.87345308 4.0449333 2
-0.93657643 -0.87423766 4.0469275 2
-0.9465456 -0.87502223 4.0489211 2
-0.95651478 -0.87580681 4.0509148 2
-0.96648395 -0.87659144 4.0529089 2
-0.97645307 -0.87737602 4.0549026 2
-0.9864223 -0.8781606 4.0568962 2
-0.99639148 -0.87894517 4.0588903 2
-1.0063607 -0.87972981 4.060884 2
-1.0163298 -0.88051438 4.0628781 2
-1.026299 -0.88129896 4.0648718 2
-1.0362681 -0.88208354 4.0668654 2
-1.0462373 -0.88286817 4.0688596 2
-1.0562065 -0.88365275 4.0708532 2
-1.0661757 -0.88443732 4.0728469 2
-1.0761448 -0.8852219 4.074841 2
-1.086114 -0.88600653 4.0768347 2
-1.0960832 -0.88679111 4.0788288 2
-1.1060524 -0.88757569 4.0808225 2
-1.1160215 -0.88836032 4.0828161 2
-1.1259907 -0.8891449 4.0848103 2
-1.1359599 -0.88992947 4.0868039 2
-1.1459291 -0.89071405 4.0887976 2
-1.1558982 -0.89149863 4.0907917 2
-1.1658674 -0.89228326 4.0927854 2
-1.1758366 -0.89306784 4.0947795 2
-1.1858058 -0.89385241 4.0967731 2
-0.19885761 -0.8161779 3.8993835 3
-0.19670069 -0.81817174 3.9093835 3
-0.19454376 -0.82016557 3.9193835 3
-0.19238685 -0.82215941 3.9293835 3
-0.19022994 -0.82415324 3.9393835 3
-0.18807301 -0.82614708 3.9493835 3
-0.1859161 -0.82814091 3.9593835 3
-0.18375918 -0.83013475 3.9693835 3
-0.18160225 -0.83212858 3.9793835 3
-0.17944534 -0.83412242 3.9893835 3
-0.17728843 -0.83611625 3.9993834 3
-0.1751315 -0.83811009 4.0093837 3
-0.17297459 -0.84010392 4.0193834 3
-0.17081767 -0.84209776 4.0293837 3
-0.16866075 -0.84409159 4.0393834 3
-0.16650383 -0.84608543 4.0493836 3
-0.16434692 -0.84807926 4.0593834 3
-0.16218999 -0.8500731 4.0693836 3
-0.16003308 -0.85206693 4.0793834 3
-0.15787616 -0.85406077 4.0893836 3
-0.15571924 -0.8560546 4.0993834 3
-0.15356232 -0.85804844 4.1093836 3
-0.15140541 -0.86004227 4.1193833 3
-0.14924848 -0.86203611 4.1293836 3
-0.14709157 -0.86402994 4.1393833 3
-0.14493465 -0.86602378 4.1493835 3
-0.14277773 -0.86801761 4.1593833 3
-0.14062081 -0.87001145 4.1693835 3
-0.1384639 -0.87200528 4.1793833 3
-0.13630697 -0.87399912 4.1893835 3
-0.13415006 -0.87599295 4.1993833 3
-0.13199314 -0.87798679 4.2093835 3
-0.12983622 -0.87998062 4.2193832 3
-0.1276793 -0.88197446 4.2293835 3
-0.12552239 -0.88396829 4.2393837 3
-0.12336547 -0.88596213 4.2493834 3
-0.12120855 -0.88795596 4.2593837 3
-0.11905163 -0.8899498 4.2693834 3
-0.11689471 -0.89194363 4.2793837 3
-0.11473779 -0.89393747 4.2893834 3
-0.11258087 -0.8959313 4.2993836 3
-0.11042396 -0.89792514 4.3093834 3
-0.10826704 -0.89991897 4.3193836 3
-0.10611012 -0.90191281 4.3293834 3
-0.10395321 -0.90390664 4.3393836 3
-0.10179628 -0.90590048 4.3493834 3
-0.099639364 -0.90789431 4.3593836 3
-0.09748245 -0.90988815 4.3693833 3
-0.09532553 -0.91188198 4.3793836 3
-0.093168609 -0.91387582 4.3893833 3
-0.091011696 -0.91586965 4.3993835 3
-0.088854775 -0.91786349 4.4093833 3
-0.086697862 -0.91985732 4.4193835 3
-0.084540948 -0.92185116 4.4293833 3
-0.082384013 -0.92384499 4.4393835 3
-0.080227099 -0.92583883 4.4493833 3
-0.078070186 -0.92783266 4.4593835 3
-0.075913265 -0.9298265 4.4693832 3
-0.073756352 -0.93182033 4.4793835 3
-0.071599439 -0.93381417 4.4893832 3
-0.069442503 -0.935808 4.4993834 3
-0.06728559 -0.93780184 4.5093837 3
-0.065128677 -0.93979567 4.5193834 3
-0.062971756 -0.94178951 4.5293837 3
-0.060814843 -0.94378334 4.5393834 3
-0.058657926 -0.94577718 4.5493836 3
-0.056500997 -0.94777101 4.5593834 3
-0.05434408 -0.94976485 4.5693836 3
-0.052187163 -0.95175868 4.5793834 3
-0.050030246 -0.95375252 4.5893836 3
-0.047873333 -0.95574635 4.5993834 3
-0.045716416 -0.95774019 4.6093836 3
-0.043559488 -0.95973402 4.6193833 3
-0.041402571 -0.96172786 4.6293836 3
-0.039245654 -0.96372169 4.6393833 3
-0.037088737 -0.96571553 4.6493835 3
-0.034931824 -0.96770936 4.6593833 3
-0.032774907 -0.9697032 4.6693835 3
-0.03061799 -0.97169703 4.6793833 3
-0.028461061 -0.97369087 4.6893835 3
-0.026304144 -0.9756847 4.6993833 3
-0.024147229 -0.97767854 4.7093835 3
-0.021990312 -0.97967237 4.7193832 3
-0.019833397 -0.98166621 4.7293835 3
-0.01767648 -0.98366004 4.7393832 3
-0.015519552 -0.98565388 4.7493834 3
-0.013362635 -0.98764771 4.7593837 3
-0.011205719 -0.98964155 4.7693834 3
-0.0090488028 -0.99163538 4.7793837 3
-0.0068918872 -0.99362922 4.7893834 3
-0.0047349706 -0.99562305 4.7993836 3
-0.0025780417 -0.99761689 4.8093834 3
-0.00042112567 -0.99961072 4.8193836 3
0.0017357904 -1.0016046 4.8293834 3
0.0038927065 -1.0035983 4.8393836 3
0.0060496228 -1.0055922 4.8493834 3
0.0082065389 -1.007586 4.8593836 3
0.010363468 -1.0095799 4.8693833 3
0.012520384 -1.0115737 4.8793836 3
0.0146773 -1.0135676 4.8893833 3
-0.52325904 1.2091883 3.7828426 1
-0.51618797 1.2162594 3.7842569 1
-0.50911689 1.2233305 3.7856712 1
-0.50204581 1.2304015 3.7870853 1
-0.49497476 1.2374725 3.7884996 1
-0.48790368 1.2445437 3.7899139 1
-0.48083261 1.2516147 3.791328 1
-0.47376153 1.2586858 3.7927423 1
-0.46669048 1.2657568 3.7941563 1
-0.4596194 1.2728279 3.7955706 1
-0.45254833 1.279899 3.7969849 1
-0.44547728 1.28697 3.798399 1
-0.4384062 1.2940412 3.7998133 1
-0.43133515 1.3011122 3.8012276 1
-0.42426407 1.3081833 3.8026416 1
-0.417193 1.3152543 3.8040559 1
-0.41012195 1.3223253 3.8054702 1
-0.40305087 1.3293965 3.8068843 1
-0.39597979 1.3364675 3.8082986 1
-0.38890874 1.3435386 3.8097129 1
-0.38183767 1.3506097 3.8111269 1
-0.37476659 1.3576807 3.8125412 1
-0.36769554 1.3647518 3.8139553 1
-0.36062446 1.3718228 3.8153696 1
-0.35355338 1.378894 3.8167839 1
-0.34648234 1.385965 3.818198 1
-0.33941126 1.393036 3.8196123 1
-0.33234018 1.4001071 3.8210266 1
-0.32526913 1.4071782 3.8224406 1
-0.31819806 1.4142493 3.8238549 1
-0.31112698 1.4213203 3.8252692 1
-0.3040559 1.4283915 3.8266833 1
-0.29698485 1.4354625 3.8280976 1
-0.28991377 1.4425336 3.8295119 1
-0.2828427 1.4496046 3.8309259 1
-0.27577165 1.4566756 3.8323402 1
-0.26870057 1.4637468 3.8337543 1
-0.26162949 1.4708178 3.8351686 1
-0.25455844 1.4778889 3.8365829 1
-0.24748738 1.48496 3.837997 1
-0.2404163 1.492031 3.8394113 1
-0.23334524 1.4991021 3.8408256 1
-0.22627418 1.5061731 3.8422396 1
-0.2192031 1.5132443 3.8436539 1
-0.21213204 1.5203153 3.8450682 1
-0.20506097 1.5273863 3.8464823 1
-0.1979899 1.5344574 3.8478966 1
-0.19091883 1.5415285 3.8493106 1
-0.18384777 1.5485996 3.8507249 1
-0.17677669 1.5556706 3.8521392 1
-0.16970563 1.5627418 3.8535533 1
-0.16263457 1.5698128 3.8549676 1
-0.1555635 1.5768838 3.8563819 1
-0.14849244 1.5839549 3.857796 1
-0.14142135 1.5910259 3.8592103 1
-0.13435028 1.5980971 3.8606246 1
-0.12727922 1.6051681 3.8620386 1
-0.12020816 1.6122391 3.8634529 1
-0.1131371 1.6193103 3.8648672 1
-0.10606603 1.6263813 3.8662813 1
-0.098994933 1.6334524 3.8676956 1
-0.09192387 1.6405234 3.8691096 1
-0.084852807 1.6475946 3.8705239 1
-0.077781752 1.6546656 3.8719382 1
-0.070710689 1.6617366 3.8733523 1
-0.063639626 1.6688077 3.8747666 1
-0.056568526 1.6758788 3.8761809 1
-0.049497463 1.6829499 3.8775949 1
-0.042426404 1.6900209 3.8790092 1
-0.035355341 1.6970919 3.8804235 1
-0.02828428 1.7041631 3.8818376 1
-0.021213219 1.7112341 3.8832519 1
