# .PCD v0.7 - Point Cloud Data file format
VERSION 0.7
FIELDS x y z intensity
SIZE 4 4 4 4
TYPE F F F F
COUNT 1 1 1 1
WIDTH 1345
HEIGHT 1
VIEWPOINT 0 0 0 1 0 0 0
POINTS 1345
DATA ascii
-0.12039161 0.1381613 4.112442 1
-0.11905169 0.147857 4.1144915 1
-0.11771178 0.15755263 4.1165404 1
-0.11637187 0.16724826 4.1185899 1
-0.11503196 0.1769439 4.1206388 1
-0.11369205 0.18663953 4.1226883 1
-0.11235214 0.19633515 4.1247373 1
-0.11101222 0.20603085 4.1267867 1
-0.10967232 0.21572648 4.1288357 1
-0.1083324 0.22542211 4.1308846 1
-0.10699249 0.23511775 4.1329341 1
-0.10565259 0.24481338 4.1349831 1
-0.10431267 0.254509 4.1370325 1
-0.10297275 0.26420471 4.1390815 1
-0.10163285 0.27390033 4.1411309 1
-0.10029294 0.28359598 4.1431799 1
-0.098953031 0.2932916 4.1452293 1
-0.097613119 0.30298725 4.1472783 1
-0.096273206 0.31268287 4.1493278 1
-0.094933301 0.32237852 4.1513767 1
-0.093593381 0.3320742 4.1534257 1
-0.092253469 0.34176981 4.1554751 1
-0.090913564 0.35146546 4.1575241 1
-0.089573652 0.36116108 4.1595736 1
-0.088233739 0.37085673 4.1616225 1
-0.086893834 0.38055235 4.163672 1
-0.085553914 0.39024806 4.1657209 1
-0.084214009 0.39994368 4.1677704 1
-0.082874097 0.40963933 4.1698194 1
-0.081534185 0.41933495 4.1718688 1
-0.08019428 0.42903057 4.1739178 1
-0.078854367 0.43872622 4.1759667 1
-0.077514447 0.4484219 4.1780162 1
-0.076174542 0.45811754 4.1800652 1
-0.07483463 0.46781316 4.1821146 1
-0.073494717 0.47750881 4.1841636 1
-0.072154813 0.48720443 4.186213 1
-0.0708149 0.49690008 4.188262 1
-0.06947498 0.50659579 4.1903114 1
-0.068135075 0.51629138 4.1923604 1
-0.066795163 0.52598703 4.1944098 1
-0.19944635 -0.43388158 3.9915402 2
-0.20924661 -0.43289176 3.9932652 2
-0.21904686 -0.43190193 3.9949901 2
-0.22884712 -0.43091214 3.9967148 2
-0.23864739 -0.42992231 3.9984398 2
-0.24844764 -0.42893249 4.0001645 2
-0.25824791 -0.42794269 4.0018897 2
-0.26804817 -0.42695287 4.0036144 2
-0.27784842 -0.42596304 4.0053391 2
-0.28764868 -0.42497325 4.0070643 2
-0.29744893 -0.42398342 4.0087891 2
-0.30724919 -0.4229936 4.0105138 2
-0.31704944 -0.42200381 4.012239 2
-0.3268497 -0.42101398 4.0139637 2
-0.33664995 -0.42002416 4.0156884 2
-0.34645024 -0.41903436 4.0174136 2
-0.35625049 -0.41804454 4.0191383 2
-0.36605075 -0.41705471 4.0208631 2
-0.37585101 -0.41606492 4.0225883 2
-0.38565126 -0.41507509 4.024313 2
-0.39545152 -0.4140853 4.0260377 2
-0.40525177 -0.41309547 4.0277629 2
-0.41505203 -0.41210565 4.0294876 2
-0.42485231 -0.41111585 4.0312123 2
-0.43465254 -0.41012603 4.0329375 2
-0.44445282 -0.40913621 4.0346622 2
-0.45425308 -0.40814641 4.036387 2
-0.46405333 -0.40715659 4.0381122 2
-0.47385359 -0.40616676 4.0398369 2
-0.48365384 -0.40517697 4.0415616 2
-0.49345413 -0.40418714 4.0432868 2
-0.50325435 -0.40319732 4.0450115 2
-0.51305461 -0.40220752 4.0467362 2
-0.52285492 -0.4012177 4.048461 2
-0.53265512 -0.40022787 4.0501862 2
-0.54245538 -0.39923808 4.0519109 2
-0.55225569 -0.39824826 4.0536356 2
-0.56205595 -0.39725846 4.0553608 2
-0.5718562 -0.39626864 4.0570855 2
-0.5816564 -0.39527881 4.0588102 2
-0.59145671 -0.39428902 4.0605354 2
-0.60125697 -0.39329919 4.0622602 2
-0.61105722 -0.39230937 4.0639849 2
-0.62085748 -0.39131957 4.0657101 2
-0.63065773 -0.39032975 4.0674348 2
-0.64045799 -0.38933992 4.0691595 2
-0.65025824 -0.38835013 4.0708847 2
-0.6600585 -0.3873603 4.0726094 2
-0.66985875 -0.38637048 4.0743341 2
-0.67965901 -0.38538069 4.0760593 2
-0.68945926 -0.38439086 4.0777841 2
-0.69925952 -0.38340104 4.0795088 2
-0.70905977 -0.38241124 4.081234 2
-0.71886003 -0.38142142 4.0829587 2
-0.72866035 -0.38043159 4.0846834 2
-0.7384606 -0.3794418 4.0864086 2
-0.74826086 -0.37845197 4.0881333 2
-0.75806111 -0.37746218 4.0898581 2
-0.76786131 -0.37647235 4.0915833 2
-0.77766156 -0.37548253 4.093308 2
-0.78746188 -0.37449273 4.0950327 2
-0.79726213 -0.37350291 4.0967579 2
-0.80706239 -0.37251309 4.0984826 2
-0.81686264 -0.37152329 4.1002073 2
-0.8266629 -0.37053347 4.1019325 2
-0.83646315 -0.36954364 4.1036572 2
-0.84626347 -0.36855385 4.105382 2
-0.85606372 -0.36756402 4.1071072 2
-0.86586392 -0.3665742 4.1088319 2
-0.87566417 -0.3655844 4.1105566 2
-0.88546443 -0.36459458 4.1122818 2
-0.89526469 -0.36360478 4.1140065 2
-0.905065 -0.36261496 4.1157312 2
-0.91486526 -0.36162513 4.1174564 2
-0.92466551 -0.36063534 4.1191812 2
-0.93446577 -0.35964552 4.1209059 2
-0.94426602 -0.35865569 4.1226311 2
-0.95406622 -0.3576659 4.1243558 2
-0.96386647 -0.35667607 4.1260805 2
-0.97366679 -0.35568625 4.1278057 2
-0.98346704 -0.35469645 4.1295304 2
-0.9932673 -0.35370663 4.1312551 2
-1.0030675 -0.3527168 4.1329803 2
-1.0128678 -0.35172701 4.1347051 2
-1.022668 -0.35073718 4.1364298 2
-1.0324683 -0.34974736 4.138155 2
-1.0422686 -0.34875757 4.1398797 2
-1.0520688 -0.34776774 4.1416044 2
-1.0618691 -0.34677792 4.1433296 2
-1.0716693 -0.34578812 4.1450543 2
-1.0814697 -0.3447983 4.1467791 2
-1.09127 -0.34380847 4.1485038 2
-1.1010702 -0.34281868 4.150229 2
-1.1108704 -0.34182885 4.1519537 2
-1.1206707 -0.34083906 4.1536784 2
-1.1304709 -0.33984923 4.1554036 2
-1.1402712 -0.33885941 4.1571283 2
-1.1500715 -0.33786961 4.1588531 2
-1.1598717 -0.33687979 4.1605783 2
-1.169672 -0.33588997 4.162303 2
-0.19944635 -0.43388158 3.9915402 3
-0.1979768 -0.43612093 4.0011749 3
-0.19650725 -0.4383603 4.0108094 3
-0.19503771 -0.44059968 4.0204439 3
-0.19356816 -0.44283906 4.0300789 3
-0.19209862 -0.44507843 4.0397134 3
-0.19062907 -0.44731781 4.0493479 3
-0.18915951 -0.44955719 4.0589824 3
-0.18768997 -0.45179653 4.0686173 3
-0.18622042 -0.45403591 4.0782518 3
-0.18475087 -0.45627528 4.0878863 3
-0.18328133 -0.45851466 4.0975208 3
-0.18181178 -0.46075404 4.1071553 3
-0.18034224 -0.46299341 4.1167903 3
-0.17887269 -0.46523279 4.1264248 3
-0.17740314 -0.46747217 4.1360593 3
-0.1759336 -0.46971151 4.1456938 3
-0.17446405 -0.47195089 4.1553288 3
-0.17299449 -0.47419026 4.1649632 3
-0.17152496 -0.47642964 4.1745977 3
-0.1700554 -0.47866902 4.1842322 3
-0.16858587 -0.48090839 4.1938672 3
-0.16711631 -0.48314777 4.2035017 3
-0.16564676 -0.48538715 4.2131362 3
-0.16417722 -0.48762649 4.2227707 3
-0.16270767 -0.48986587 4.2324057 3
-0.16123812 -0.49210525 4.2420402 3
-0.15976858 -0.49434462 4.2516747 3
-0.15829903 -0.496584 4.2613091 3
-0.15682949 -0.49882337 4.2709436 3
-0.15535994 -0.50106275 4.2805786 3
-0.15389039 -0.5033021 4.2902131 3
-0.15242085 -0.5055415 4.2998476 3
-0.1509513 -0.50778085 4.3094821 3
-0.14948174 -0.51002026 4.3191171 3
-0.14801221 -0.5122596 4.3287516 3
-0.14654265 -0.51449901 4.3383861 3
-0.1450731 -0.51673836 4.3480206 3
-0.14360356 -0.5189777 4.3576555 3
-0.14213401 -0.52121711 4.36729 3
-0.14066446 -0.52345645 4.3769245 3
-0.13919492 -0.52569586 4.386559 3
-0.13772537 -0.52793521 4.3961935 3
-0.13625583 -0.53017461 4.4058285 3
-0.13478628 -0.53241396 4.415463 3
-0.13331673 -0.53465331 4.4250975 3
-0.13184719 -0.53689271 4.434732 3
-0.13037764 -0.53913206 4.4443669 3
-0.1289081 -0.54137146 4.4540014 3
-0.12743855 -0.54361081 4.4636359 3
-0.12596899 -0.54585022 4.4732704 3
-0.12449945 -0.54808956 4.4829054 3
-0.1230299 -0.55032891 4.4925399 3
-0.12156036 -0.55256832 4.5021744 3
-0.1200908 -0.55480766 4.5118089 3
-0.11862126 -0.55704707 4.5214438 3
-0.11715171 -0.55928642 4.5310783 3
-0.11568217 -0.56152582 4.5407128 3
-0.11421262 -0.56376517 4.5503473 3
-0.11274307 -0.56600451 4.5599818 3
-0.11127352 -0.56824392 4.5696168 3
-0.10980397 -0.57048327 4.5792513 3
-0.10833443 -0.57272267 4.5888858 3
-0.10686488 -0.57496202 4.5985203 3
-0.10539534 -0.57720143 4.6081553 3
-0.10392579 -0.57944077 4.6177897 3
-0.10245624 -0.58168018 4.6274242 3
-0.1009867 -0.58391953 4.6370587 3
-0.099517144 -0.58615887 4.6466937 3
-0.098047599 -0.58839828 4.6563282 3
-0.096578054 -0.59063762 4.6659627 3
-0.095108509 -0.59287703 4.6755972 3
-0.093638957 -0.59511638 4.6852322 3
-0.092169411 -0.59735578 4.6948667 3
-0.090699866 -0.59959513 4.7045012 3
-0.089230321 -0.60183448 4.7141356 3
-0.087760776 -0.60407388 4.7237701 3
-0.086291231 -0.60631323 4.7334051 3
-0.084821686 -0.60855263 4.7430396 3
-0.083352126 -0.61079198 4.7526741 3
-0.081882581 -0.61303139 4.7623086 3
-0.080413036 -0.61527073 4.7719436 3
-0.078943491 -0.61751008 4.7815781 3
-0.077473946 -0.61974949 4.7912126 3
-0.076004401 -0.62198883 4.8008471 3
-0.074534848 -0.62422824 4.810482 3
-0.073065303 -0.62646759 4.8201165 3
-0.071595758 -0.62870699 4.829751 3
-0.070126206 -0.63094634 4.8393855 3
-0.068656661 -0.63318568 4.8490205 3
-0.067187116 -0.63542509 4.858655 3
-0.065717563 -0.6376645 4.8682895 3
-0.064248018 -0.63990384 4.877924 3
-0.062778473 -0.64214319 4.8875585 3
-0.061308928 -0.6443826 4.8971934 3
-0.059839383 -0.64662194 4.9068279 3
-0.058369834 -0.64886135 4.9164624 3
-0.056900281 -0.6511007 4.9260969 3
-0.055430736 -0.6533401 4.9357319 3
-0.053961191 -0.65557945 4.9453664 3
-0.21476512 -0.41616368 3.9894247 1
-0.21335351 -0.40647331 3.9914505 1
-0.2119419 -0.3967829 3.9934764 1
-0.2105303 -0.3870925 3.995502 1
-0.20911869 -0.3774021 3.9975278 1
-0.20770709 -0.36771172 3.9995534 1
-0.20629549 -0.35802132 4.0015793 1
-0.20488387 -0.34833091 4.0036049 1
-0.20347227 -0.33864054 4.0056305 1
-0.20206067 -0.32895014 4.0076566 1
-0.20064907 -0.31925973 4.0096822 1
-0.19923747 -0.30956933 4.0117078 1
-0.19782585 -0.29987895 4.0137339 1
-0.19641425 -0.29018855 4.0157595 1
-0.19500265 -0.28049815 4.0177851 1
-0.19359104 -0.27080774 4.0198107 1
-0.19217944 -0.26111737 4.0218368 1
-0.19076782 -0.25142696 4.0238624 1
-0.18935622 -0.24173656 4.025888 1
-0.18794462 -0.23204617 4.0279136 1
-0.18653302 -0.22235578 4.0299397 1
-0.18512142 -0.21266539 4.0319653 1
-0.18370982 -0.20297499 4.0339909 1
-0.1822982 -0.19328459 4.0360169 1
-0.1808866 -0.1835942 4.0380425 1
-0.17947499 -0.17390381 4.0400681 1
-0.17806339 -0.16421342 4.0420938 1
-0.17665178 -0.154523 4.0441198 1
-0.17524017 -0.14483261 4.0461454 1
-0.17382857 -0.13514222 4.048171 1
-0.17241697 -0.12545182 4.0501966 1
-0.17100537 -0.11576143 4.0522227 1
-0.16959377 -0.10607104 4.0542483 1
-0.16818215 -0.096380629 4.0562739 1
-0.16677055 -0.08669024 4.0583 1
-0.16535895 -0.076999851 4.0603256 1
-0.16394734 -0.067309439 4.0623512 1
-0.16253574 -0.05761905 4.0643768 1
-0.16112414 -0.047928665 4.0664029 1
-0.15971252 -0.03823828 4.0684285 1
-0.15830092 -0.028547864 4.0704541 1
-0.15688932 -0.018857477 4.0724802 1
-0.15547772 -0.009167091 4.0745058 1
-0.1540661 0.00052332424 4.0765314 1
-0.1526545 0.01021371 4.078557 1
-0.1512429 0.019904098 4.0805831 1
-0.1498313 0.029594513 4.0826087 1
-0.14841969 0.0392849 4.0846343 1
-0.14700809 0.048975285 4.0866599 1
-0.14559647 0.0586657 4.088686 1
-0.14418487 0.068356089 4.0907116 1
-0.14277327 0.078046471 4.0927372 1
-0.14136167 0.08773686 4.0947633 1
-0.13995007 0.097427249 4.0967889 1
-0.13853845 0.10711769 4.0988145 1
-0.13712685 0.11680808 4.1008401 1
-0.13571525 0.12649846 4.1028662 1
-0.13430364 0.13618885 4.1048918 1
-0.13289204 0.14587924 4.1069174 1
-0.13148044 0.15556963 4.108943 1
-0.13006882 0.16526006 4.1109691 1
-0.12865722 0.17495045 4.1129947 1
-0.12724562 0.18464084 4.1150203 1
-0.12583402 0.19433123 4.1170464 1
-0.12442241 0.20402162 4.119072 1
-0.12301081 0.21371199 4.1210976 1
-0.1215992 0.22340244 4.1231232 1
-0.1201876 0.23309283 4.1251493 1
-0.11877599 0.24278322 4.1271749 1
-0.11736438 0.25247359 4.1292005 1
-0.11595278 0.262164 4.1312265 1
-0.11454118 0.27185437 4.1332521 1
-0.11312957 0.2815448 4.1352777 1
-0.11171796 0.29123521 4.1373034 1
-0.11030636 0.30092558 4.1393294 1
-0.10889476 0.31061599 4.141355 1
-0.10748316 0.32030636 4.1433806 1
-0.10607155 0.32999673 4.1454062 1
-0.10465994 0.33968714 4.1474323 1
-0.10324834 0.34937757 4.1494579 1
-0.10183673 0.35906798 4.1514835 1
-0.10042513 0.36875835 4.1535096 1
-0.099013522 0.37844872 4.1555352 1
-0.09760192 0.38813913 4.1575608 1
-0.096190318 0.3978295 4.1595864 1
-0.094778709 0.40751997 4.1616125 1
-0.0933671 0.41721034 4.1636381 1
-0.091955498 0.42690071 4.1656637 1
-0.090543896 0.43659112 4.1676893 1
-0.089132294 0.44628149 4.1697154 1
-0.087720692 0.4559719 4.171741 1
-0.086309075 0.46566233 4.1737666 1
-0.084897473 0.4753527 4.1757927 1
-0.083485872 0.48504311 4.1778183 1
-0.08207427 0.49473348 4.1798439 1
-0.080662668 0.50442386 4.1818695 1
-0.079251058 0.51411426 4.1838956 1
-0.077839449 0.52380472 4.1859212 1
-0.076427847 0.53349507 4.1879468 1
-0.075016245 0.54318547 4.1899729 1
-0.21476512 -0.41616368 3.9894247 2
-0.22456138 -0.41509166 3.991123 2
-0.23435764 -0.41401967 3.9928212 2
-0.2441539 -0.41294765 3.9945195 2
-0.25395015 -0.41187564 3.9962177 2
-0.26374641 -0.41080362 3.997916 2
-0.27354267 -0.4097316 3.9996142 2
-0.28333893 -0.40865958 4.0013127 2
-0.2931352 -0.40758759 4.0030107 2
-0.30293146 -0.40651557 4.0047092 2
-0.31272772 -0.40544355 4.0064073 2
-0.32252398 -0.40437153 4.0081058 2
-0.33232024 -0.40329951 4.0098038 2
-0.3421165 -0.40222749 4.0115023 2
-0.35191277 -0.4011555 4.0132003 2
-0.36170903 -0.40008348 4.0148988 2
-0.37150529 -0.39901146 4.0165968 2
-0.38130155 -0.39793944 4.0182948 2
-0.39109781 -0.39686742 4.0199933 2
-0.40089408 -0.3957954 4.0216913 2
-0.41069034 -0.39472342 4.0233898 2
-0.4204866 -0.3936514 4.0250878 2
-0.43028286 -0.39257938 4.0267863 2
-0.44007912 -0.39150736 4.0284843 2
-0.44987538 -0.39043534 4.0301828 2
-0.45967165 -0.38936332 4.0318809 2
-0.46946791 -0.38829133 4.0335793 2
-0.47926417 -0.38721931 4.0352774 2
-0.48906043 -0.38614729 4.0369759 2
-0.49885669 -0.38507527 4.0386739 2
-0.50865299 -0.38400325 4.0403724 2
-0.51844919 -0.38293123 4.0420704 2
-0.52824545 -0.38185921 4.0437689 2
-0.53804177 -0.38078722 4.0454669 2
-0.54783797 -0.3797152 4.0471654 2
-0.55763423 -0.37864318 4.0488634 2
-0.56743056 -0.37757117 4.0505619 2
-0.57722676 -0.37649915 4.0522599 2
-0.58702302 -0.37542713 4.0539584 2
-0.59681928 -0.37435514 4.0556564 2
-0.60661554 -0.37328312 4.0573549 2
-0.61641181 -0.3722111 4.0590529 2
-0.62620807 -0.37113908 4.0607514 2
-0.63600433 -0.37006706 4.0624495 2
-0.64580059 -0.36899504 4.0641479 2
-0.65559685 -0.36792305 4.065846 2
-0.66539311 -0.36685103 4.0675445 2
-0.67518938 -0.36577901 4.0692425 2
-0.68498564 -0.36470699 4.070941 2
-0.6947819 -0.36363497 4.072639 2
-0.70457816 -0.36256295 4.0743375 2
-0.71437442 -0.36149096 4.0760355 2
-0.72417068 -0.36041895 4.0777335 2
-0.73396695 -0.35934693 4.079432 2
-0.74376327 -0.35827491 4.08113 2
-0.75355947 -0.35720289 4.0828285 2
-0.76335573 -0.35613087 4.0845265 2
-0.77315199 -0.35505885 4.086225 2
-0.78294826 -0.35398686 4.087923 2
-0.79274452 -0.35291484 4.0896215 2
-0.80254084 -0.35184282 4.0913196 2
-0.81233704 -0.3507708 4.0930181 2
-0.8221333 -0.34969878 4.0947161 2
-0.83192956 -0.34862676 4.0964146 2
-0.84172583 -0.34755477 4.0981126 2
-0.85152209 -0.34648275 4.0998111 2
-0.86131841 -0.34541073 4.1015091 2
-0.87111461 -0.34433872 4.1032076 2
-0.88091087 -0.3432667 4.1049056 2
-0.89070714 -0.34219468 4.1066041 2
-0.9005034 -0.34112269 4.1083021 2
-0.91029966 -0.34005067 4.1100006 2
-0.92009598 -0.33897865 4.1116986 2
-0.92989218 -0.33790663 4.1133971 2
-0.93968844 -0.33683461 4.1150951 2
-0.94948471 -0.33576259 4.1167936 2
-0.95928097 -0.3346906 4.1184916 2
-0.96907723 -0.33361858 4.1201901 2
-0.97887349 -0.33254656 4.1218882 2
-0.98866975 -0.33147454 4.1235867 2
-0.99846601 -0.33040252 4.1252847 2
-1.0082623 -0.3293305 4.1269832 2
-1.0180585 -0.32825851 4.1286812 2
-1.0278548 -0.3271865 4.1303797 2
-1.0376511 -0.32611448 4.1320777 2
-1.0474473 -0.32504246 4.1337762 2
-1.0572436 -0.32397044 4.1354742 2
-1.0670398 -0.32289842 4.1371727 2
-1.0768361 -0.3218264 4.1388707 2
-1.0866324 -0.32075441 4.1405687 2
-1.0964286 -0.31968239 4.1422672 2
-1.1062249 -0.31861037 4.1439652 2
-1.1160212 -0.31753835 4.1456637 2
-1.1258174 -0.31646633 4.1473618 2
-1.1356137 -0.31539431 4.1490602 2
-1.1454099 -0.31432232 4.1507583 2
-1.1552062 -0.3132503 4.1524568 2
-1.1650025 -0.31217828 4.1541548 2
-1.1747987 -0.31110626 4.1558533 2
-1.184595 -0.31003425 4.1575513 2
-0.21476512 -0.41616368 3.9894247 3
-0.2133366 -0.41838789 3.9990692 3
-0.2119081 -0.42061207 4.0087132 3
-0.21047959 -0.42283627 4.0183578 3
-0.20905107 -0.42506045 4.0280018 3
-0.20762257 -0.42728463 4.0376463 3
-0.20619406 -0.42950884 4.0472903 3
-0.20476556 -0.43173301 4.0569348 3
-0.20333704 -0.43395722 4.0665793 3
-0.20190853 -0.4361814 4.0762234 3
-0.20048003 -0.43840557 4.0858679 3
-0.19905151 -0.44062978 4.0955119 3
-0.19762301 -0.44285396 4.1051564 3
-0.1961945 -0.44507816 4.1148005 3
-0.19476599 -0.44730234 4.124445 3
-0.19333749 -0.44952655 4.134089 3
-0.19190897 -0.45175073 4.1437335 3
-0.19048047 -0.4539749 4.1533775 3
-0.18905196 -0.45619911 4.163022 3
-0.18762346 -0.45842329 4.1726665 3
-0.18619494 -0.46064749 4.1823106 3
-0.18476643 -0.46287167 4.1919551 3
-0.18333793 -0.46509585 4.2015991 3
-0.18190941 -0.46732005 4.2112436 3
-0.18048091 -0.46954423 4.2208877 3
-0.1790524 -0.47176844 4.2305322 3
-0.1776239 -0.47399262 4.2401762 3
-0.17619538 -0.47621682 4.2498207 3
-0.17476687 -0.478441 4.2594647 3
-0.17333837 -0.48066518 4.2691092 3
-0.17190985 -0.48288938 4.2787538 3
-0.17048134 -0.48511356 4.2883978 3
-0.16905284 -0.48733774 4.2980423 3
-0.16762432 -0.48956195 4.3076863 3
-0.16619582 -0.49178612 4.3173308 3
-0.16476731 -0.49401033 4.3269749 3
-0.1633388 -0.49623451 4.3366194 3
-0.1619103 -0.49845871 4.3462634 3
-0.16048178 -0.50068289 4.3559079 3
-0.15905328 -0.5029071 4.3655519 3
-0.15762477 -0.50513124 4.3751965 3
-0.15619627 -0.50735545 4.3848405 3
-0.15476775 -0.50957966 4.394485 3
-0.15333924 -0.51180387 4.4041295 3
-0.15191074 -0.51402801 4.4137735 3
-0.15048222 -0.51625222 4.423418 3
-0.14905372 -0.51847643 4.4330621 3
-0.14762521 -0.52070057 4.4427066 3
-0.14619671 -0.52292478 4.4523506 3
-0.14476819 -0.52514899 4.4619951 3
-0.14333968 -0.52737314 4.4716392 3
-0.14191118 -0.52959734 4.4812837 3
-0.14048266 -0.53182155 4.4909277 3
-0.13905416 -0.5340457 4.5005722 3
-0.13762565 -0.5362699 4.5102167 3
-0.13619713 -0.53849411 4.5198607 3
-0.13476864 -0.54071832 4.5295053 3
-0.13334012 -0.54294246 4.5391493 3
-0.13191162 -0.54516667 4.5487938 3
-0.13048311 -0.54739088 4.5584378 3
-0.12905459 -0.54961509 4.5680823 3
-0.12762609 -0.55183923 4.5777264 3
-0.12619758 -0.55406344 4.5873709 3
-0.12476907 -0.55628765 4.5970149 3
-0.12334056 -0.55851179 4.6066594 3
-0.12191205 -0.560736 4.6163039 3
-0.12048354 -0.56296021 4.625948 3
-0.11905503 -0.56518441 4.6355925 3
-0.11762653 -0.56740856 4.6452365 3
-0.11619802 -0.56963277 4.654881 3
-0.11476951 -0.57185698 4.664525 3
-0.113341 -0.57408112 4.6741695 3
-0.11191249 -0.57630533 4.6838136 3
-0.11048398 -0.57852954 4.6934581 3
-0.10905547 -0.58075368 4.7031021 3
-0.10762697 -0.58297789 4.7127466 3
-0.10619846 -0.5852021 4.7223911 3
-0.10476995 -0.58742625 4.7320352 3
-0.10334145 -0.58965045 4.7416797 3
-0.10191293 -0.59187466 4.7513237 3
-0.10048442 -0.59409887 4.7609682 3
-0.099055916 -0.59632301 4.7706122 3
-0.097627409 -0.59854722 4.7802567 3
-0.096198902 -0.60077143 4.7899008 3
-0.094770394 -0.60299557 4.7995453 3
-0.09334188 -0.60521978 4.8091893 3
-0.091913372 -0.60744399 4.8188338 3
-0.090484865 -0.6096682 4.8284783 3
-0.089056358 -0.61189234 4.8381224 3
-0.08762785 -0.61411655 4.8477669 3
-0.086199343 -0.61634076 4.8574109 3
-0.084770828 -0.6185649 4.8670554 3
-0.083342321 -0.62078911 4.8766994 3
-0.081913814 -0.62301332 4.886344 3
-0.080485307 -0.62523752 4.895988 3
-0.079056799 -0.62746167 4.9056325 3
-0.077628292 -0.62968588 4.9152765 3
-0.076199777 -0.63191009 4.924921 3
-0.07477127 -0.63413423 4.9345655 3
-0.073342763 -0.63635844 4.9442096 3
-0.22973125 -0.39837825 3.9872947 1
-0.22824794 -0.38869381 3.9892974 1
-0.22676463 -0.37900934 3.9913003 1
-0.22528133 -0.36932489 3.9933031 1
-0.22379802 -0.35964042 3.9953058 1
-0.22231472 -0.34995598 3.9973085 1
-0.22083141 -0.3402715 3.9993114 1
-0.2193481 -0.33058706 4.0013142 1
-0.2178648 -0.32090262 4.0033169 1
-0.21638149 -0.31121814 4.0053196 1
-0.21489818 -0.3015337 4.0073223 1
-0.21341488 -0.29184923 4.009325 1
-0.21193157 -0.28216478 4.0113282 1
-0.21044827 -0.27248034 4.0133309 1
-0.20896496 -0.26279587 4.0153337 1
-0.20748165 -0.25311139 4.0173364 1
-0.20599835 -0.24342696 4.0193391 1
-0.20451504 -0.23374249 4.0213418 1
-0.20303173 -0.22405803 4.0233445 1
-0.20154843 -0.21437359 4.0253472 1
-0.20006512 -0.20468913 4.0273504 1
-0.19858181 -0.19500467 4.0293531 1
-0.19709851 -0.18532021 4.0313559 1
-0.1956152 -0.17563576 4.0333586 1
-0.1941319 -0.16595131 4.0353613 1
-0.19264859 -0.15626685 4.037364 1
-0.19116528 -0.14658239 4.0393667 1
-0.18968198 -0.13689792 4.0413694 1
-0.18819867 -0.12721348 4.0433726 1
-0.18671536 -0.11752903 4.0453753 1
-0.18523206 -0.10784455 4.0473781 1
-0.18374875 -0.09816011 4.0493808 1
-0.18226545 -0.088475659 4.0513835 1
-0.18078214 -0.078791186 4.0533862 1
-0.17929883 -0.069106743 4.0553889 1
-0.17781553 -0.059422292 4.0573916 1
-0.17633222 -0.049737819 4.0593948 1
-0.17484891 -0.040053371 4.0613976 1
-0.17336561 -0.030368922 4.0634003 1
-0.17188232 -0.020684477 4.065403 1
-0.170399 -0.011000001 4.0674057 1
-0.16891569 -0.0013155536 4.0694084 1
-0.1674324 0.0083688935 4.0714111 1
-0.16594908 0.01805337 4.0734138 1
-0.16446577 0.027737817 4.075417 1
-0.16298248 0.037422262 4.0774198 1
-0.16149916 0.047106739 4.0794225 1
-0.16001585 0.056791186 4.0814252 1
-0.15853256 0.06647563 4.0834279 1
-0.15704924 0.076160111 4.0854306 1
-0.15556593 0.085844554 4.0874333 1
-0.15408264 0.095529005 4.0894361 1
-0.15259933 0.10521345 4.0914392 1
-0.15111603 0.11489789 4.093442 1
-0.14963271 0.1245824 4.0954447 1
-0.1481494 0.13426685 4.0974474 1
-0.14666609 0.1439513 4.0994501 1
-0.1451828 0.15363574 4.1014528 1
-0.1436995 0.16332018 4.1034555 1
-0.14221619 0.17300463 4.1054583 1
-0.14073287 0.18268915 4.1074615 1
-0.13924956 0.19237359 4.1094642 1
-0.13776626 0.20205803 4.1114669 1
-0.13628295 0.21174248 4.1134696 1
-0.13479966 0.22142693 4.1154723 1
-0.13331635 0.23111138 4.117475 1
-0.13183303 0.24079588 4.1194777 1
-0.13034973 0.25048032 4.1214805 1
-0.12886642 0.26016477 4.1234837 1
-0.12738311 0.26984921 4.1254864 1
-0.12589982 0.27953365 4.1274891 1
-0.12441651 0.2892181 4.1294918 1
-0.12293319 0.29890263 4.1314945 1
-0.1214499 0.30858707 4.1334972 1
-0.11996659 0.31827152 4.1355 1
-0.11848328 0.32795596 4.1375027 1
-0.11699998 0.3376404 4.1395059 1
-0.11551667 0.34732485 4.1415086 1
-0.11403336 0.35700929 4.1435113 1
-0.11255005 0.36669379 4.145514 1
-0.11106675 0.37637824 4.1475167 1
-0.10958344 0.38606271 4.1495194 1
-0.10810014 0.39574715 4.1515222 1
-0.10661683 0.4054316 4.1535249 1
-0.10513353 0.41511604 4.1555281 1
-0.10365021 0.42480054 4.1575308 1
-0.10216691 0.43448499 4.1595335 1
-0.10068361 0.44416943 4.1615362 1
-0.099200301 0.45385388 4.1635389 1
-0.097716995 0.46353832 4.1655416 1
-0.096233688 0.47322276 4.1675444 1
-0.094750375 0.4829073 4.1695471 1
-0.093267076 0.49259174 4.1715503 1
-0.091783769 0.50227618 4.173553 1
-0.090300463 0.51196063 4.1755557 1
-0.088817157 0.52164507 4.1775584 1
-0.087333851 0.53132951 4.1795611 1
-0.085850537 0.54101402 4.1815639 1
-0.084367238 0.55069846 4.1835666 1
-0.082883932 0.5603829 4.1855693 1
-0.22973125 -0.39837825 3.9872947 2
-0.23952277 -0.39722425 3.9889662 2
-0.24931429 -0.39607024 3.990638 2
-0.25910583 -0.39491624 3.9923096 2
-0.26889735 -0.39376223 3.9939811 2
-0.27868888 -0.39260823 3.9956529 2
-0.2884804 -0.39145422 3.9973245 2
-0.29827192 -0.39030018 3.998996 2
-0.30806345 -0.38914618 4.0006676 2
-0.31785497 -0.38799217 4.0023394 2
-0.32764649 -0.38683817 4.0040112 2
-0.33743802 -0.38568416 4.0056825 2
-0.34722954 -0.38453016 4.0073543 2
-0.35702106 -0.38337615 4.0090261 2
-0.36681259 -0.38222215 4.0106974 2
-0.37660411 -0.38106814 4.0123692 2
-0.38639563 -0.37991413 4.0140409 2
-0.39618716 -0.37876013 4.0157123 2
-0.40597868 -0.37760612 4.0173841 2
-0.4157702 -0.37645212 4.0190554 2
-0.42556173 -0.37529811 4.0207272 2
-0.43535325 -0.37414411 4.0223989 2
-0.44514477 -0.3729901 4.0240703 2
-0.4549363 -0.37183607 4.0257421 2
-0.46472782 -0.37068206 4.0274138 2
-0.47451934 -0.36952806 4.0290852 2
-0.48431087 -0.36837405 4.030757 2
-0.49410239 -0.36722004 4.0324287 2
-0.50389391 -0.36606604 4.0341001 2
-0.51368541 -0.36491203 4.0357718 2
-0.52347696 -0.36375803 4.0374436 2
-0.53326845 -0.36260402 4.039115 2
-0.54306 -0.36145002 4.0407867 2
-0.55285156 -0.36029601 4.0424585 2
-0.56264305 -0.35914201 4.0441298 2
-0.57243454 -0.357988 4.0458016 2
-0.5822261 -0.35683399 4.0474734 2
-0.59201765 -0.35567999 4.0491447 2
-0.60180914 -0.35452598 4.0508165 2
-0.61160064 -0.35337198 4.0524883 2
-0.62139219 -0.35221794 4.0541596 2
-0.63118368 -0.35106394 4.0558314 2
-0.64097524 -0.34990993 4.0575032 2
-0.65076679 -0.34875593 4.0591745 2
-0.66055828 -0.34760192 4.0608463 2
-0.67034978 -0.34644791 4.0625181 2
-0.68014133 -0.34529391 4.0641894 2
-0.68993282 -0.3441399 4.0658612 2
-0.69972438 -0.3429859 4.0675325 2
-0.70951593 -0.34183189 4.0692043 2
-0.71930742 -0.34067789 4.0708761 2
-0.72909892 -0.33952388 4.0725474 2
-0.73889047 -0.33836988 4.0742192 2
-0.74868196 -0.33721587 4.075891 2
-0.75847352 -0.33606184 4.0775623 2
-0.76826507 -0.33490783 4.0792341 2
-0.77805656 -0.33375382 4.0809059 2
-0.78784806 -0.33259982 4.0825772 2
-0.79763961 -0.33144581 4.084249 2
-0.8074311 -0.33029181 4.0859208 2
-0.81722265 -0.3291378 4.0875921 2
-0.82701421 -0.3279838 4.0892639 2
-0.8368057 -0.32682979 4.0909357 2
-0.84659719 -0.32567579 4.092607 2
-0.85638875 -0.32452178 4.0942788 2
-0.86618024 -0.32336777 4.0959506 2
-0.87597179 -0.32221377 4.0976219 2
-0.88576335 -0.32105976 4.0992937 2
-0.89555484 -0.31990576 4.1009655 2
-0.90534639 -0.31875175 4.1026368 2
-0.91513789 -0.31759775 4.1043086 2
-0.92492938 -0.31644374 4.1059804 2
-0.93472099 -0.31528971 4.1076517 2
-0.94451249 -0.3141357 4.1093235 2
-0.95430398 -0.31298169 4.1109953 2
-0.96409553 -0.31182769 4.1126666 2
-0.97388703 -0.31067368 4.1143384 2
-0.98367852 -0.30951968 4.1160097 2
-0.99347007 -0.30836567 4.1176815 2
-1.0032616 -0.30721167 4.1193533 2
-1.0130532 -0.30605766 4.1210246 2
-1.0228447 -0.30490366 4.1226964 2
-1.0326362 -0.30374965 4.1243682 2
-1.0424277 -0.30259565 4.1260395 2
-1.0522192 -0.30144164 4.1277113 2
-1.0620108 -0.30028763 4.1293831 2
-1.0718023 -0.29913363 4.1310544 2
-1.0815938 -0.29797962 4.1327262 2
-1.0913854 -0.29682559 4.134398 2
-1.1011769 -0.29567158 4.1360693 2
-1.1109684 -0.29451758 4.1377411 2
-1.12076 -0.29336357 4.1394129 2
-1.1305515 -0.29220957 4.1410842 2
-1.140343 -0.29105556 4.142756 2
-1.1501344 -0.28990155 4.1444278 2
-1.1599259 -0.28874755 4.1460991 2
-1.1697174 -0.28759354 4.1477709 2
-1.179509 -0.28643954 4.1494427 2
-1.1893005 -0.28528553 4.151114 2
-1.199092 -0.28413153 4.1527858 2
-0.22973125 -0.39837825 3.9872947 3
-0.2283435 -0.40058723 3.9969485 3
-0.22695574 -0.40279621 4.0066023 3
-0.22556798 -0.40500519 4.0162559 3
-0.22418022 -0.40721416 4.0259094 3
-0.22279246 -0.40942314 4.0355635 3
-0.2214047 -0.41163212 4.045217 3
-0.22001694 -0.4138411 4.0548706 3
-0.2186292 -0.41605008 4.0645247 3
-0.21724144 -0.41825902 4.0741782 3
-0.21585368 -0.420468 4.0838318 3
-0.21446592 -0.42267698 4.0934858 3
-0.21307816 -0.42488596 4.1031394 3
-0.2116904 -0.42709494 4.112793 3
-0.21030264 -0.42930391 4.122447 3
-0.20891489 -0.43151289 4.1321006 3
-0.20752713 -0.43372187 4.1417546 3
-0.20613937 -0.43593085 4.1514082 3
-0.20475161 -0.43813983 4.1610618 3
-0.20336385 -0.4403488 4.1707158 3
-0.20197609 -0.44255778 4.1803694 3
-0.20058835 -0.44476676 4.1900229 3
-0.19920059 -0.44697574 4.199677 3
-0.19781283 -0.44918472 4.2093306 3
-0.19642507 -0.45139369 4.2189841 3
-0.19503731 -0.45360267 4.2286382 3
-0.19364955 -0.45581165 4.2382917 3
-0.19226179 -0.45802063 4.2479453 3
-0.19087404 -0.46022958 4.2575994 3
-0.18948628 -0.46243855 4.2672529 3
-0.18809852 -0.46464753 4.2769065 3
-0.18671076 -0.46685651 4.2865605 3
-0.185323 -0.46906549 4.2962141 3
-0.18393524 -0.47127447 4.3058677 3
-0.18254748 -0.47348344 4.3155217 3
-0.18115973 -0.47569242 4.3251753 3
-0.17977197 -0.4779014 4.3348289 3
-0.17838421 -0.48011038 4.3444829 3
-0.17699645 -0.48231936 4.3541365 3
-0.17560869 -0.48452833 4.36379 3
-0.17422093 -0.48673731 4.3734441 3
-0.17283319 -0.48894629 4.3830976 3
-0.17144543 -0.49115527 4.3927512 3
-0.17005767 -0.49336424 4.4024053 3
-0.16866991 -0.49557322 4.4120588 3
-0.16728215 -0.49778217 4.4217124 3
-0.16589439 -0.49999118 4.4313664 3
-0.16450663 -0.50220013 4.44102 3
-0.16311888 -0.50440913 4.4506741 3
-0.16173112 -0.50661808 4.4603276 3
-0.16034336 -0.50882709 4.4699812 3
-0.1589556 -0.51103604 4.4796352 3
-0.15756784 -0.51324505 4.4892888 3
-0.1561801 -0.51545399 4.4989424 3
-0.15479232 -0.517663 4.5085964 3
-0.15340458 -0.51987195 4.51825 3
-0.15201682 -0.52208096 4.5279036 3
-0.15062906 -0.52428991 4.5375576 3
-0.1492413 -0.52649885 4.5472112 3
-0.14785354 -0.52870786 4.5568647 3
-0.14646578 -0.53091681 4.5665188 3
-0.14507802 -0.53312582 4.5761724 3
-0.14369027 -0.53533477 4.5858259 3
-0.14230251 -0.53754377 4.59548 3
-0.14091475 -0.53975272 4.6051335 3
-0.13952699 -0.54196173 4.6147871 3
-0.13813923 -0.54417068 4.6244411 3
-0.13675147 -0.54637969 4.6340947 3
-0.13536373 -0.54858863 4.6437483 3
-0.13397597 -0.55079764 4.6534023 3
-0.13258821 -0.55300659 4.6630559 3
-0.13120045 -0.5552156 4.6727095 3
-0.12981269 -0.55742455 4.6823635 3
-0.12842493 -0.55963355 4.6920171 3
-0.12703717 -0.5618425 4.7016711 3
-0.12564942 -0.56405151 4.7113247 3
-0.12426166 -0.56626046 4.7209783 3
-0.1228739 -0.56846941 4.7306323 3
-0.12148615 -0.57067841 4.7402859 3
-0.12009838 -0.57288736 4.7499394 3
-0.11871063 -0.57509637 4.7595935 3
-0.11732287 -0.57730532 4.7692471 3
-0.11593511 -0.57951432 4.7789006 3
-0.11454736 -0.58172327 4.7885547 3
-0.1131596 -0.58393228 4.7982082 3
-0.11177184 -0.58614123 4.8078618 3
-0.11038408 -0.58835024 4.8175159 3
-0.10899632 -0.59055918 4.8271694 3
-0.10760856 -0.59276819 4.836823 3
-0.10622081 -0.59497714 4.846477 3
-0.10483305 -0.59718615 4.8561306 3
-0.10344529 -0.5993951 4.8657842 3
-0.10205753 -0.6016041 4.8754382 3
-0.10066978 -0.60381305 4.8850918 3
-0.099282019 -0.60602206 4.8947453 3
-0.097894259 -0.60823101 4.9043994 3
-0.096506506 -0.61043996 4.914053 3
-0.095118739 -0.61264896 4.9237065 3
-0.093730986 -0.61485791 4.9333606 3
-0.092343226 -0.61706692 4.9430141 3
-0.24434508 -0.38053039 3.9851518 1
-0.24279009 -0.37085256 3.9871321 1
-0.24123509 -0.36117473 3.9891124 1
-0.2396801 -0.35149691 3.9910927 1
-0.23812509 -0.34181908 3.993073 1
-0.23657009 -0.33214125 3.9950533 1
-0.23501509 -0.32246342 3.9970336 1
-0.2334601 -0.3127856 3.9990139 1
-0.2319051 -0.30310777 4.0009942 1
-0.23035009 -0.29342994 4.0029745 1
-0.2287951 -0.28375211 4.0049548 1
-0.2272401 -0.27407429 4.0069351 1
-0.2256851 -0.26439646 4.0089154 1
-0.22413011 -0.25471863 4.0108957 1
-0.22257511 -0.24504079 4.012876 1
-0.2210201 -0.23536295 4.0148563 1
-0.21946511 -0.22568513 4.0168366 1
-0.21791011 -0.21600729 4.0188169 1
-0.21635512 -0.20632946 4.0207973 1
-0.21480012 -0.19665164 4.0227776 1
-0.21324511 -0.18697381 4.0247579 1
-0.21169011 -0.17729598 4.0267382 1
-0.21013512 -0.16761816 4.0287185 1
-0.20858012 -0.15794031 4.0306988 1
-0.20702513 -0.1482625 4.0326791 1
-0.20547011 -0.13858466 4.0346594 1
-0.20391512 -0.12890685 4.0366397 1
-0.20236012 -0.119229 4.03862 1
-0.20080513 -0.10955118 4.0406003 1
-0.19925013 -0.099873357 4.0425806 1
-0.19769512 -0.090195507 4.0445609 1
-0.19614013 -0.080517687 4.0465412 1
-0.19458513 -0.070839867 4.0485215 1
-0.19303013 -0.061162021 4.0505018 1
-0.19147514 -0.051484201 4.0524821 1
-0.18992014 -0.041806381 4.0544624 1
-0.18836513 -0.032128531 4.0564427 1
-0.18681014 -0.022450712 4.058423 1
-0.18525514 -0.012772892 4.0604033 1
-0.18370014 -0.0030950713 4.0623837 1
-0.18214515 0.0065827775 4.064364 1
-0.18059014 0.016260598 4.0663443 1
-0.17903514 0.025938418 4.0683246 1
-0.17748015 0.035616267 4.0703049 1
-0.17592515 0.045294087 4.0722852 1
-0.17437015 0.054971907 4.0742655 1
-0.17281514 0.064649753 4.0762458 1
-0.17126015 0.074327573 4.0782261 1
-0.16970515 0.084005393 4.0802064 1
-0.16815016 0.093683243 4.0821867 1
-0.16659516 0.10336106 4.084167 1
-0.16504017 0.11303888 4.0861473 1
-0.16348517 0.1227167 4.0881276 1
-0.16193016 0.13239452 4.0901079 1
-0.16037516 0.14207239 4.0920882 1
-0.15882017 0.15175022 4.0940685 1
-0.15726517 0.16142803 4.0960488 1
-0.15571016 0.17110586 4.0980291 1
-0.15415516 0.18078367 4.1000094 1
-0.15260017 0.1904615 4.1019897 1
-0.15104517 0.20013937 4.1039701 1
-0.14949018 0.2098172 4.1059504 1
-0.14793517 0.21949501 4.1079307 1
-0.14638017 0.22917284 4.109911 1
-0.14482518 0.23885065 4.1118913 1
-0.14327018 0.24852848 4.1138716 1
-0.14171517 0.25820637 4.1158519 1
-0.14016017 0.26788417 4.1178322 1
-0.13860518 0.27756199 4.1198125 1
-0.13705018 0.28723982 4.1217928 1
-0.13549519 0.29691765 4.1237731 1
-0.13394019 0.30659544 4.1257534 1
-0.13238518 0.31627333 4.1277337 1
-0.13083018 0.32595116 4.129714 1
-0.12927519 0.33562899 4.1316943 1
-0.12772019 0.34530678 4.1336746 1
-0.1261652 0.35498461 4.1356549 1
-0.1246102 0.36466244 4.1376352 1
-0.1230552 0.37434027 4.1396155 1
-0.12150019 0.38401812 4.1415958 1
-0.1199452 0.39369595 4.1435761 1
-0.1183902 0.40337378 4.1455564 1
-0.11683521 0.41305158 4.1475368 1
-0.1152802 0.4227294 4.1495171 1
-0.11372521 0.43240723 4.1514974 1
-0.1121702 0.44208512 4.1534777 1
-0.11061521 0.45176291 4.155458 1
-0.10906021 0.46144074 4.1574383 1
-0.10750521 0.47111857 4.1594186 1
-0.10595021 0.4807964 4.1613989 1
-0.10439522 0.49047419 4.1633792 1
-0.10284021 0.50015211 4.1653595 1
-0.10128521 0.50982988 4.1673398 1
-0.099730216 0.51950771 4.1693201 1
-0.09817522 0.52918553 4.1713004 1
-0.096620224 0.53886336 4.1732807 1
-0.095065229 0.54854119 4.175261 1
-0.093510218 0.55821908 4.1772413 1
-0.091955222 0.5678969 4.1792216 1
-0.090400226 0.57757473 4.1812019 1
-0.24434508 -0.38053039 3.9851518 2
-0.25413114 -0.3792946 3.9867969 2
-0.26391718 -0.37805885 3.9884419 2
-0.27370325 -0.37682307 3.9900868 2
-0.28348929 -0.37558728 3.9917319 2
-0.29327533 -0.3743515 3.993377 2
-0.30306137 -0.37311572 3.9950221 2
-0.31284744 -0.37187994 3.9966669 2
-0.32263348 -0.37064418 3.998312 2
-0.33241954 -0.3694084 3.9999571 2
-0.34220558 -0.36817262 4.0016022 2
-0.35199162 -0.36693683 4.0032473 2
-0.36177766 -0.36570105 4.0048919 2
-0.37156373 -0.36446527 4.006537 2
-0.38134977 -0.36322951 4.008182 2
-0.39113584 -0.36199373 4.0098271 2
-0.40092188 -0.36075795 4.0114722 2
-0.41070792 -0.35952216 4.0131173 2
-0.42049399 -0.35828638 4.0147624 2
-0.43028003 -0.3570506 4.016407 2
-0.44006607 -0.35581481 4.0180521 2
-0.44985211 -0.35457906 4.0196972 2
-0.45963818 -0.35334328 4.0213423 2
-0.46942422 -0.3521075 4.0229874 2
-0.47921026 -0.35087171 4.0246325 2
-0.48899633 -0.34963593 4.0262775 2
-0.49878237 -0.34840015 4.0279222 2
-0.50856841 -0.34716439 4.0295672 2
-0.51835448 -0.34592861 4.0312123 2
-0.52814049 -0.34469283 4.0328574 2
-0.53792655 -0.34345704 4.0345025 2
-0.54771262 -0.34222126 4.0361476 2
-0.55749863 -0.34098548 4.0377927 2
-0.5672847 -0.33974969 4.0394373 2
-0.57707077 -0.33851394 4.0410824 2
-0.58685678 -0.33727816 4.0427275 2
-0.59664285 -0.33604237 4.0443726 2
-0.60642892 -0.33480659 4.0460176 2
-0.61621493 -0.33357081 4.0476627 2
-0.626001 -0.33233505 4.0493078 2
-0.63578707 -0.33109927 4.0509524 2
-0.64557308 -0.32986349 4.0525975 2
-0.65535915 -0.32862771 4.0542426 2
-0.66514522 -0.32739192 4.0558877 2
-0.67493123 -0.32615614 4.0575328 2
-0.6847173 -0.32492039 4.0591779 2
-0.69450337 -0.3236846 4.060823 2
-0.70428938 -0.32244882 4.0624676 2
-0.71407545 -0.32121304 4.0641127 2
-0.72386152 -0.31997725 4.0657578 2
-0.73364753 -0.31874147 4.0674028 2
-0.74343359 -0.31750569 4.0690479 2
-0.7532196 -0.31626993 4.070693 2
-0.76300567 -0.31503415 4.0723381 2
-0.77279174 -0.31379837 4.0739832 2
-0.78257781 -0.31256258 4.0756278 2
-0.79236382 -0.3113268 4.0772729 2
-0.80214989 -0.31009102 4.078918 2
-0.8119359 -0.30885527 4.0805631 2
-0.82172197 -0.30761948 4.0822082 2
-0.83150804 -0.3063837 4.0838532 2
-0.84129411 -0.30514792 4.0854983 2
-0.85108012 -0.30391213 4.0871429 2
-0.86086619 -0.30267635 4.088788 2
-0.8706522 -0.3014406 4.0904331 2
-0.88043827 -0.30020481 4.0920782 2
-0.89022434 -0.29896903 4.0937233 2
-0.90001041 -0.29773325 4.0953684 2
-0.90979642 -0.29649746 4.0970135 2
-0.91958249 -0.29526168 4.0986581 2
-0.9293685 -0.29402593 4.1003032 2
-0.93915457 -0.29279014 4.1019483 2
-0.94894063 -0.29155436 4.1035933 2
-0.9587267 -0.29031858 4.1052384 2
-0.96851271 -0.2890828 4.1068835 2
-0.97829878 -0.28784701 4.1085286 2
-0.98808479 -0.28661123 4.1101732 2
-0.99787086 -0.28537548 4.1118183 2
-1.0076569 -0.28413969 4.1134634 2
-1.0174429 -0.28290391 4.1151085 2
-1.0272291 -0.28166813 4.1167536 2
-1.0370151 -0.28043234 4.1183987 2
-1.0468011 -0.27919656 4.1200438 2
-1.0565871 -0.27796081 4.1216884 2
-1.0663732 -0.27672502 4.1233335 2
-1.0761592 -0.27548924 4.1249785 2
-1.0859454 -0.27425346 4.1266236 2
-1.0957314 -0.27301767 4.1282687 2
-1.1055174 -0.27178189 4.1299138 2
-1.1153034 -0.27054614 4.1315589 2
-1.1250895 -0.26931036 4.1332035 2
-1.1348755 -0.26807457 4.1348486 2
-1.1446617 -0.26683879 4.1364937 2
-1.1544477 -0.26560301 4.1381388 2
-1.1642337 -0.26436722 4.1397839 2
-1.1740197 -0.26313147 4.1414289 2
-1.1838058 -0.26189569 4.143074 2
-1.1935918 -0.2606599 4.1447186 2
-1.203378 -0.25942412 4.1463637 2
-1.213164 -0.25818834 4.1480088 2
-0.24434508 -0.38053039 3.9851518 3
-0.24299778 -0.38272414 3.9948146 3
-0.24165048 -0.38491786 4.0044775 3
-0.24030319 -0.3871116 4.0141406 3
-0.23895589 -0.38930532 4.0238037 3
-0.23760858 -0.39149907 4.0334663 3
-0.23626128 -0.39369282 4.0431294 3
-0.23491398 -0.39588654 4.0527925 3
-0.23356667 -0.39808029 4.0624552 3
-0.23221937 -0.40027401 4.0721183 3
-0.23087206 -0.40246776 4.0817814 3
-0.22952476 -0.40466148 4.091444 3
-0.22817747 -0.40685523 4.1011071 3
-0.22683017 -0.40904894 4.1107697 3
-0.22548287 -0.41124269 4.1204329 3
-0.22413556 -0.41343641 4.130096 3
-0.22278826 -0.41563016 4.1397586 3
-0.22144096 -0.41782388 4.1494217 3
-0.22009365 -0.42001763 4.1590848 3
-0.21874635 -0.42221138 4.1687474 3
-0.21739905 -0.4244051 4.1784105 3
-0.21605176 -0.42659885 4.1880736 3
-0.21470445 -0.42879257 4.1977363 3
-0.21335715 -0.43098632 4.2073994 3
-0.21200985 -0.43318003 4.2170625 3
-0.21066254 -0.43537378 4.2267251 3
-0.20931524 -0.4375675 4.2363882 3
-0.20796794 -0.43976125 4.2460508 3
-0.20662063 -0.44195497 4.2557139 3
-0.20527335 -0.44414872 4.265377 3
-0.20392603 -0.44634247 4.2750397 3
-0.20257874 -0.44853619 4.2847028 3
-0.20123143 -0.45072994 4.2943659 3
-0.19988413 -0.45292366 4.3040285 3
-0.19853683 -0.4551174 4.3136916 3
-0.19718952 -0.45731112 4.3233547 3
-0.19584222 -0.45950487 4.3330173 3
-0.19449492 -0.46169859 4.3426805 3
-0.19314763 -0.46389234 4.3523436 3
-0.19180033 -0.46608606 4.3620062 3
-0.19045302 -0.46827981 4.3716693 3
-0.18910572 -0.47047353 4.3813319 3
-0.18775842 -0.47266728 4.390995 3
-0.18641111 -0.47486103 4.4006581 3
-0.18506381 -0.47705474 4.4103208 3
-0.18371651 -0.47924849 4.4199839 3
-0.1823692 -0.48144221 4.429647 3
-0.18102191 -0.48363596 4.4393096 3
-0.17967461 -0.48582968 4.4489727 3
-0.17832731 -0.48802343 4.4586358 3
-0.17698 -0.49021715 4.4682984 3
-0.1756327 -0.4924109 4.4779615 3
-0.1742854 -0.49460462 4.4876242 3
-0.17293809 -0.49679837 4.4972873 3
-0.17159079 -0.49899212 4.5069504 3
-0.17024349 -0.50118583 4.516613 3
-0.1688962 -0.50337958 4.5262761 3
-0.16754889 -0.50557333 4.5359392 3
-0.16620159 -0.50776702 4.5456018 3
-0.16485429 -0.50996077 4.5552649 3
-0.16350698 -0.51215452 4.5649281 3
-0.16215968 -0.51434827 4.5745907 3
-0.16081238 -0.51654196 4.5842538 3
-0.15946507 -0.51873571 4.5939169 3
-0.15811779 -0.52092946 4.6035795 3
-0.15677048 -0.5231232 4.6132426 3
-0.15542316 -0.52531695 4.6229057 3
-0.15407588 -0.52751064 4.6325684 3
-0.15272857 -0.52970439 4.6422315 3
-0.15138127 -0.53189814 4.6518941 3
-0.15003397 -0.53409189 4.6615572 3
-0.14868666 -0.53628558 4.6712203 3
-0.14733936 -0.53847933 4.6808829 3
-0.14599206 -0.54067308 4.690546 3
-0.14464477 -0.54286683 4.7002091 3
-0.14329746 -0.54506052 4.7098718 3
-0.14195016 -0.54725426 4.7195349 3
-0.14060286 -0.54944801 4.729198 3
-0.13925555 -0.55164176 4.7388606 3
-0.13790825 -0.55383551 4.7485237 3
-0.13656095 -0.5560292 4.7581868 3
-0.13521364 -0.55822295 4.7678494 3
-0.13386635 -0.5604167 4.7775126 3
-0.13251905 -0.56261045 4.7871752 3
-0.13117175 -0.56480414 4.7968383 3
-0.12982444 -0.56699789 4.8065014 3
-0.12847714 -0.56919163 4.816164 3
-0.12712984 -0.57138538 4.8258271 3
-0.12578253 -0.57357907 4.8354902 3
-0.12443524 -0.57577282 4.8451529 3
-0.12308794 -0.57796657 4.854816 3
-0.12174063 -0.58016032 4.8644791 3
-0.12039333 -0.58235407 4.8741417 3
-0.11904602 -0.58454776 4.8838048 3
-0.11769873 -0.58674151 4.8934674 3
-0.11635143 -0.58893526 4.9031305 3
-0.11500413 -0.591129 4.9127936 3
-0.11365682 -0.59332275 4.9224563 3
-0.11230952 -0.59551644 4.9321194 3
-0.11096222 -0.59771019 4.9417825 3
-0.25860703 -0.36262527 3.9829981 1
-0.25698036 -0.35295475 3.9849565 1
-0.25535372 -0.34328425 3.9869146 1
-0.25372705 -0.33361372 3.988873 1
-0.25210038 -0.3239432 3.9908314 1
-0.25047371 -0.31427267 3.9927897 1
-0.24884705 -0.30460215 3.9947481 1
-0.24722038 -0.29493162 3.9967062 1
-0.24559371 -0.28526112 3.9986646 1
-0.24396706 -0.2755906 4.0006227 1
-0.24234039 -0.26592007 4.0025811 1
-0.24071372 -0.25624955 4.0045395 1
-0.23908706 -0.24657904 4.0064979 1
-0.23746039 -0.23690851 4.0084562 1
-0.23583373 -0.22723798 4.0104146 1
-0.23420706 -0.21756747 4.012373 1
-0.23258039 -0.20789696 4.0143313 1
-0.23095374 -0.19822644 4.0162897 1
-0.22932707 -0.18855591 4.0182476 1
-0.2277004 -0.1788854 4.020206 1
-0.22607374 -0.16921487 4.0221643 1
-0.22444707 -0.15954436 4.0241227 1
-0.22282042 -0.14987384 4.0260811 1
-0.22119375 -0.14020331 4.0280395 1
-0.21956708 -0.1305328 4.0299978 1
-0.21794042 -0.12086227 4.0319562 1
-0.21631375 -0.11119176 4.0339141 1
-0.21468708 -0.10152122 4.0358725 1
-0.21306042 -0.091850705 4.0378308 1
-0.21143375 -0.082180195 4.0397892 1
-0.20980708 -0.072509654 4.0417476 1
-0.20818043 -0.062839143 4.0437059 1
-0.20655376 -0.053168636 4.0456643 1
-0.20492709 -0.043498095 4.0476227 1
-0.20330043 -0.033827584 4.0495811 1
-0.20167376 -0.024157073 4.0515389 1
-0.20004711 -0.014486534 4.0534973 1
-0.19842044 -0.0048160222 4.0554557 1
-0.19679376 0.0048544887 4.0574141 1
-0.19516711 0.014525 4.0593724 1
-0.19354044 0.024195539 4.0613308 1
-0.19191378 0.033866052 4.0632892 1
-0.19028711 0.043536562 4.0652475 1
-0.18866044 0.053207103 4.0672059 1
-0.18703379 0.06287761 4.0691638 1
-0.18540712 0.072548121 4.0711222 1
-0.18378045 0.082218662 4.0730805 1
-0.18215379 0.091889173 4.0750389 1
-0.18052712 0.10155968 4.0769973 1
-0.17890045 0.11123022 4.0789557 1
-0.1772738 0.12090074 4.080914 1
-0.17564712 0.13057125 4.0828724 1
-0.17402047 0.14024176 4.0848303 1
-0.1723938 0.14991227 4.0867887 1
-0.17076713 0.15958284 4.088747 1
-0.16914047 0.16925335 4.0907054 1
-0.1675138 0.17892386 4.0926638 1
-0.16588715 0.18859437 4.0946221 1
-0.16426048 0.19826488 4.0965805 1
-0.16263381 0.20793539 4.0985389 1
-0.16100714 0.21760596 4.1004972 1
-0.15938048 0.22727647 4.1024551 1
-0.15775381 0.23694699 4.1044135 1
-0.15612715 0.2466175 4.1063719 1
-0.15450048 0.25628799 4.1083302 1
-0.15287383 0.26595852 4.1102886 1
-0.15124716 0.27562907 4.112247 1
-0.14962049 0.2852996 4.1142054 1
-0.14799382 0.2949701 4.1161637 1
-0.14636716 0.30464062 4.1181221 1
-0.14474049 0.31431112 4.12008 1
-0.14311384 0.32398164 4.1220384 1
-0.14148717 0.3336522 4.1239967 1
-0.1398605 0.34332272 4.1259551 1
-0.13823384 0.35299322 4.1279135 1
-0.13660717 0.36266375 4.1298718 1
-0.13498051 0.37233424 4.1318302 1
-0.13335384 0.38200477 4.1337886 1
-0.13172719 0.39167526 4.135747 1
-0.1301005 0.40134585 4.1377048 1
-0.12847385 0.41101635 4.1396632 1
-0.12684718 0.42068687 4.1416216 1
-0.12522052 0.43035737 4.14358 1
-0.12359386 0.44002789 4.1455383 1
-0.12196719 0.44969839 4.1474967 1
-0.12034052 0.45936897 4.1494551 1
-0.11871386 0.46903947 4.1514134 1
-0.11708719 0.47871 4.1533713 1
-0.11546053 0.48838049 4.1553297 1
-0.11383387 0.49805102 4.1572881 1
-0.1122072 0.50772154 4.1592464 1
-0.11058053 0.5173921 4.1612048 1
-0.10895386 0.52706259 4.1631632 1
-0.1073272 0.53673309 4.1651216 1
-0.10570054 0.54640365 4.1670799 1
-0.10407387 0.55607414 4.1690383 1
-0.10244721 0.56574464 4.1709962 1
-0.10082054 0.57541519 4.1729546 1
-0.099193878 0.58508575 4.1749129 1
-0.097567216 0.59475625 4.1768713 1
-0.25860703 -0.36262527 3.9829981 2
-0.26838687 -0.36130795 3.9846165 2
-0.27816671 -0.35999066 3.9862349 2
-0.28794655 -0.35867333 3.9878535 2
-0.29772639 -0.35735601 3.9894719 2
-0.30750626 -0.35603872 3.9910903 2
-0.3172861 -0.3547214 3.9927087 2
-0.32706594 -0.35340407 3.9943273 2
-0.33684579 -0.35208678 3.9959457 2
-0.34662563 -0.35076946 3.9975641 2
-0.35640547 -0.34945214 3.9991825 2
-0.36618531 -0.34813482 4.0008011 2
-0.37596515 -0.34681752 4.0024195 2
-0.38574499 -0.3455002 4.0040379 2
-0.39552483 -0.34418288 4.0056562 2
-0.4053047 -0.34286559 4.0072746 2
-0.41508451 -0.34154826 4.008893 2
-0.42486438 -0.34023094 4.0105119 2
-0.43464422 -0.33891365 4.0121303 2
-0.44442406 -0.33759633 4.0137486 2
-0.4542039 -0.336279 4.015367 2
-0.46398374 -0.33496171 4.0169854 2
-0.47376359 -0.33364439 4.0186038 2
-0.48354343 -0.33232707 4.0202222 2
-0.49332327 -0.33100975 4.0218406 2
-0.50310314 -0.32969245 4.023459 2
-0.51288295 -0.32837513 4.0250778 2
-0.52266282 -0.32705781 4.0266962 2
-0.53244263 -0.32574052 4.0283146 2
-0.5422225 -0.32442319 4.029933 2
-0.55200231 -0.32310587 4.0315514 2
-0.56178218 -0.32178858 4.0331697 2
-0.57156199 -0.32047126 4.0347881 2
-0.58134186 -0.31915393 4.0364065 2
-0.59112167 -0.31783661 4.0380254 2
-0.60090154 -0.31651932 4.0396438 2
-0.61068141 -0.315202 4.0412621 2
-0.62046123 -0.31388468 4.0428805 2
-0.63024104 -0.31256738 4.0444989 2
-0.64002091 -0.31125006 4.0461173 2
-0.64980078 -0.30993274 4.0477357 2
-0.65958059 -0.30861545 4.0493541 2
-0.6693604 -0.30729812 4.0509729 2
-0.67914027 -0.3059808 4.0525913 2
-0.68892014 -0.30466348 4.0542097 2
-0.69869995 -0.30334619 4.0558281 2
-0.70847982 -0.30202886 4.0574465 2
-0.71825963 -0.30071154 4.0590649 2
-0.7280395 -0.29939425 4.0606833 2
-0.73781937 -0.29807693 4.0623016 2
-0.74759918 -0.29675961 4.0639205 2
-0.757379 -0.29544231 4.0655389 2
-0.76715887 -0.29412499 4.0671573 2
-0.77693868 -0.29280767 4.0687757 2
-0.78671855 -0.29149035 4.070394 2
-0.79649842 -0.29017305 4.0720124 2
-0.80627823 -0.28885573 4.0736308 2
-0.8160581 -0.28753841 4.0752492 2
-0.82583791 -0.28622112 4.0768676 2
-0.83561772 -0.28490379 4.0784864 2
-0.84539765 -0.28358647 4.0801048 2
-0.85517746 -0.28226918 4.0817232 2
-0.86495727 -0.28095186 4.0833416 2
-0.87473714 -0.27963454 4.08496 2
-0.88451695 -0.27831724 4.0865784 2
-0.89429682 -0.27699992 4.0881968 2
-0.9040767 -0.2756826 4.0898151 2
-0.91385651 -0.27436528 4.091434 2
-0.92363638 -0.27304798 4.0930524 2
-0.93341619 -0.27173066 4.0946708 2
-0.94319606 -0.27041334 4.0962892 2
-0.95297587 -0.26909605 4.0979075 2
-0.96275574 -0.26777872 4.0995259 2
-0.97253561 -0.2664614 4.1011443 2
-0.98231542 -0.26514408 4.1027627 2
-0.99209523 -0.26382679 4.1043816 2
-1.001875 -0.26250947 4.1059999 2
-1.011655 -0.26119217 4.1076183 2
-1.0214348 -0.25987485 4.1092367 2
-1.0312146 -0.25855753 4.1108551 2
-1.0409945 -0.25724021 4.1124735 2
-1.0507743 -0.25592291 4.1140919 2
-1.0605541 -0.25460559 4.1157103 2
-1.070334 -0.25328827 4.1173291 2
-1.0801138 -0.25197098 4.1189475 2
-1.0898937 -0.25065365 4.1205659 2
-1.0996735 -0.24933633 4.1221843 2
-1.1094533 -0.24801902 4.1238027 2
-1.1192333 -0.24670172 4.125421 2
-1.1290131 -0.2453844 4.1270394 2
-1.1387929 -0.24406709 4.1286578 2
-1.1485728 -0.24274977 4.1302767 2
-1.1583526 -0.24143246 4.1318951 2
-1.1681324 -0.24011514 4.1335135 2
-1.1779122 -0.23879783 4.1351318 2
-1.187692 -0.23748052 4.1367502 2
-1.197472 -0.23616321 4.1383686 2
-1.2072518 -0.23484589 4.139987 2
-1.2170317 -0.23352857 4.1416054 2
-1.2268115 -0.23221126 4.1432238 2
-0.25860703 -0.36262527 3.9829981 3
-0.2572999 -0.36480373 3.9926701 3
-0.25599274 -0.36698222 4.0023417 3
-0.25468558 -0.36916068 4.0120139 3
