# .PCD v0.7 - Point Cloud Data file format
VERSION 0.7
FIELDS x y z intensity
SIZE 4 4 4 4
TYPE F F F F
COUNT 1 1 1 1
WIDTH 400
HEIGHT 1
VIEWPOINT 0 0 0 1 0 0 0
POINTS 400
DATA ascii
0.17080176 0.12689726 1.1562277 0
0.17424554 0.13016754 1.1657383 1
0.17773919 0.13350286 1.1753311 2
0.18128183 0.13690059 1.185006 3
0.18487269 0.14035816 1.1947634 4
0.18851098 0.14387299 1.2046034 5
0.19219604 0.14744245 1.2145262 6
0.19592726 0.1510639 1.224532 7
0.19970407 0.15473475 1.2346212 8
0.20352599 0.15845233 1.2447938 9
0.20739259 0.16221404 1.2550502 10
0.2113035 0.16601719 1.2653908 11
0.21525845 0.16985914 1.2758156 12
0.21925718 0.17373724 1.2863252 13
0.22329952 0.17764884 1.2969198 14
0.22738537 0.18159124 1.3075998 15
0.23151469 0.18556179 1.3183655 16
0.23568751 0.18955781 1.3292172 17
0.23990393 0.19357662 1.3401554 18
0.24416408 0.19761555 1.3511806 19
0.24846819 0.20167191 1.3622929 20
0.25281656 0.20574303 1.373493 21
0.25720948 0.20982622 1.3847811 22
0.26164743 0.21391879 1.3961579 23
0.26613086 0.21801804 1.4076236 24
0.27066031 0.2221213 1.4191788 25
0.2752364 0.22622587 1.430824 26
0.27985975 0.23032907 1.4425596 27
0.28453112 0.23442818 1.454386 28
0.28925133 0.23852053 1.4663038 29
0.29402116 0.24260342 1.4783134 30
0.2988416 0.24667415 1.4904155 31
0.30371362 0.25073001 1.5026103 32
0.30863822 0.25476831 1.5148984 33
0.31361651 0.25878632 1.5272803 34
0.31864968 0.26278138 1.5397567 35
0.32373893 0.26675072 1.5523278 36
0.32888556 0.27069169 1.5649941 37
0.33409086 0.27460152 1.5777562 38
0.3393563 0.27847746 1.5906146 39
0.34468329 0.28231686 1.6035696 40
0.35007334 0.28611693 1.6166219 41
0.35552803 0.28987491 1.6297717 42
0.36104903 0.2935881 1.6430196 43
0.36663795 0.29725367 1.656366 44
0.37229654 0.30086893 1.6698114 45
0.37802663 0.30443102 1.6833559 46
0.38383004 0.30793718 1.6970003 47
0.38970867 0.31138459 1.7107447 48
0.39566448 0.31477046 1.7245895 49
0.40169945 0.3180919 1.738535 50
0.40781567 0.3213461 1.7525816 51
0.4140152 0.32453018 1.7667295 52
0.42030025 0.32764125 1.7809789 53
0.42667294 0.33067638 1.7953303 54
0.43313557 0.33363265 1.8097835 55
0.43969044 0.33650708 1.8243389 56
0.44633988 0.33929676 1.8389966 57
0.45308626 0.34199861 1.8537569 58
0.45993203 0.34460962 1.8686196 59
0.4668797 0.34712672 1.8835846 60
0.47393173 0.34954682 1.8986523 61
0.48109069 0.35186678 1.9138224 62
0.48835924 0.35408345 1.9290949 63
0.49573997 0.3561936 1.9444696 64
0.50323558 0.35819402 1.9599464 65
0.51084876 0.36008143 1.9755249 66
0.51858234 0.3618525 1.9912051 67
0.52643901 0.36350384 2.0069864 68
0.53442174 0.36503205 2.0228684 69
0.54253328 0.36643365 2.038851 70
0.55077654 0.36770517 2.0549333 71
0.55915451 0.36884302 2.071115 72
0.56767011 0.36984354 2.0873954 73
0.57632631 0.37070313 2.1037736 74
0.58512616 0.371418 2.1202493 75
0.59407276 0.37198433 2.1368213 76
0.60316914 0.37239832 2.1534886 77
0.61241835 0.37265602 2.1702507 78
0.62182361 0.37275341 2.1871061 79
0.63138801 0.37268645 2.2040541 80
0.64111471 0.37245098 2.2210929 81
0.65100694 0.37204283 2.2382219 82
0.6610679 0.37145767 2.255439 83
0.67130083 0.37069115 2.2727435 84
0.68170893 0.36973885 2.2901332 85
0.69229543 0.36859617 2.3076065 86
0.70306373 0.36725858 2.3251619 87
0.71401697 0.36572132 2.3427975 88
0.72515851 0.36397961 2.3605113 89
0.73649162 0.36202857 2.3783014 90
0.74801964 0.35986322 2.3961651 91
0.75974584 0.3574785 2.4141006 92
0.77167356 0.35486925 2.4321053 93
0.78380609 0.35203016 2.4501767 94
0.79614669 0.34895593 2.4683123 95
0.80869877 0.34564102 2.4865091 96
0.82146549 0.34207991 2.5047641 97
0.83445024 0.33826688 2.5230746 98
0.84765631 0.33419618 2.5414374 99
0.86108691 0.32986191 2.5598488 100
0.87474412 0.32525966 2.578305 101
0.8886258 0.32039148 2.5967977 102
0.90272826 0.31526098 2.615319 103
0.91704774 0.30987173 2.6338599 104
0.93158036 0.30422717 2.6524124 105
0.9463219 0.29833078 2.6709678 106
0.96126801 0.29218602 2.6895185 107
0.97641432 0.2857962 2.7080555 108
0.99175596 0.2791647 2.7265716 109
1.0072882 0.27229485 2.7450585 110
1.023006 0.26518995 2.7635086 111
1.038904 0.2578533 2.781914 112
1.0549768 0.25028819 2.8002672 113
1.0712191 0.24249783 2.8185611 114
1.087625 0.23448552 2.8367882 115
1.1041886 0.22625452 2.8549416 116
1.1209037 0.21780805 2.873014 117
1.1377645 0.20914939 2.8909988 118
1.1547643 0.20028178 2.9088893 119
1.1718966 0.19120851 2.9266791 120
1.1891549 0.18193284 2.9443619 121
1.2065322 0.17245802 2.9619312 122
1.2240217 0.16278741 2.9793813 123
1.2416161 0.15292425 2.9967065 124
1.2593083 0.14287192 3.0139008 125
1.2770909 0.13263372 3.0309591 126
1.2949564 0.12221303 3.0478761 127
1.3128972 0.11161322 3.0646465 128
1.3309054 0.10083769 3.0812657 129
1.3489733 0.089889839 3.097729 130
1.3670926 0.078773126 3.1140316 131
1.3852556 0.067490995 3.1301696 132
1.4034536 0.056046937 3.1461387 133
1.4216787 0.044444449 3.1619351 134
1.4399221 0.032687068 3.1775548 135
1.4581754 0.020778339 3.1929948 136
1.4764299 0.0087218387 3.2082517 137
1.4946771 -0.0034788304 3.2233222 138
1.5129079 -0.015820045 3.2382038 139
1.5311133 -0.028298156 3.2528932 140
1.5492845 -0.040909488 3.2673886 141
1.5674123 -0.053650338 3.2816875 142
1.5854876 -0.066516988 3.2957878 143
1.6035011 -0.079505682 3.3096876 144
1.6214435 -0.092612639 3.3233855 145
1.6393054 -0.10583407 3.3368797 146
1.6570772 -0.11916613 3.3501692 147
1.6747496 -0.13260497 3.3632531 148
1.692313 -0.14614671 3.3761303 149
1.7097576 -0.15978743 3.3888001 150
1.7270738 -0.17352322 3.4012623 151
1.7442518 -0.18735006 3.4135165 152
1.761282 -0.20126401 3.4255626 153
1.7781543 -0.215261 3.4374011 154
1.7948588 -0.22933701 3.4490316 155
1.8113856 -0.24348792 3.4604552 156
1.8277249 -0.25770962 3.4716723 157
1.8438666 -0.27199799 3.4826837 158
1.8598006 -0.28634876 3.4934907 159
1.8755168 -0.3007578 3.5040941 160
1.891005 -0.31522077 3.5144958 161
1.9062552 -0.3297334 3.5246971 162
1.9212573 -0.34429133 3.5346994 163
1.9360007 -0.35889021 3.5445049 164
1.9504756 -0.37352556 3.5541155 165
1.9646716 -0.38819292 3.5635333 166
1.9785782 -0.40288779 3.5727608 167
1.9921855 -0.41760552 3.5818005 168
2.0054827 -0.43234152 3.5906546 169
2.0184598 -0.44709107 3.5993261 170
2.0311065 -0.46184945 3.6078176 171
2.043412 -0.47661179 3.6161327 172
2.0553663 -0.49137321 3.624274 173
2.0669587 -0.50612879 3.6322448 174
2.0781789 -0.52087343 3.6400483 175
2.0890164 -0.53560209 3.6476882 176
2.0994608 -0.55030948 3.6551681 177
2.1095014 -0.5649904 3.6624913 178
2.119128 -0.57963938 3.6696618 179
2.12833 -0.59425098 3.6766832 180
2.1370966 -0.60881966 3.6835594 181
2.1454175 -0.62333971 3.6902945 182
2.1532819 -0.63780528 3.6968925 183
2.1606796 -0.65221047 3.7033577 184
2.1675997 -0.66654921 3.7096937 185
2.1740317 -0.6808154 3.7159052 186
2.1799648 -0.69500268 3.7219961 187
2.1853886 -0.70910454 3.7279706 188
2.1902924 -0.72311443 3.7338336 189
2.1946652 -0.73702556 3.7395885 190
2.1984968 -0.75083101 3.7452404 191
2.201776 -0.76452368 3.7507932 192
2.2044926 -0.77809626 3.7562513 193
2.2066355 -0.79154128 3.7616191 194
2.2081938 -0.80485106 3.7669005 195
2.209157 -0.81801772 3.7721002 196
2.2095144 -0.83103323 3.7772222 197
2.209255 -0.84388924 3.7822704 198
2.2083678 -0.85657722 3.7872493 199
2.2068424 -0.86908847 3.7921627 200
2.2046707 -0.88141507 3.7970142 201
2.2018559 -0.89355373 3.8018081 202
2.1984043 -0.90550226 3.8065476 203
2.1943228 -0.91725808 3.8112364 204
2.1896174 -0.92881882 3.8158772 205
2.1842949 -0.94018167 3.8204732 206
2.1783619 -0.95134383 3.825027 207
2.1718252 -0.96230239 3.829541 208
2.164691 -0.97305441 3.8340178 209
2.1569667 -0.98359662 3.838459 210
2.148659 -0.99392581 3.8428671 211
2.139775 -1.0040388 3.8472435 212
2.1303215 -1.013932 3.8515897 213
2.1203058 -1.0236021 3.855907 214
2.1097353 -1.0330454 3.8601968 215
2.0986168 -1.0422585 3.86446 216
2.0869579 -1.0512377 3.8686972 217
2.0747664 -1.0599792 3.8729095 218
2.0620496 -1.0684794 3.8770971 219
2.048815 -1.0767344 3.8812604 220
2.0350704 -1.0847406 3.8853996 221
2.020824 -1.0924942 3.8895147 222
2.006083 -1.0999913 3.8936057 223
1.9908562 -1.1072282 3.8976724 224
1.9751512 -1.1142009 3.9017146 225
1.9589764 -1.120906 3.9057312 226
1.9423401 -1.1273394 3.9097221 227
1.9252506 -1.1334976 3.9136863 228
1.9077166 -1.1393768 3.9176228 229
1.8897465 -1.1449734 3.9215312 230
1.8713493 -1.1502838 3.9254096 231
1.8525336 -1.1553044 3.9292574 232
1.8333082 -1.1600319 3.933073 233
1.8136824 -1.1644628 3.9368551 234
1.7936652 -1.1685939 3.9406023 235
1.7732658 -1.1724217 3.9443126 236
1.7524936 -1.1759433 3.9479847 237
1.7313581 -1.1791555 3.951617 238
1.7098686 -1.1820555 3.9552071 239
1.6880349 -1.1846403 3.9587536 240
1.6658669 -1.1869072 3.9622545 241
1.643374 -1.1888537 3.9657075 242
1.6205666 -1.1904773 3.969111 243
1.5974544 -1.1917756 3.9724627 244
1.5740478 -1.1927463 3.9757602 245
1.5503569 -1.1933875 3.9790018 246
1.526392 -1.1936973 3.9821849 247
1.5021635 -1.1936737 3.9853077 248
1.477682 -1.1933154 3.9883676 249
1.4529581 -1.1926206 3.9913626 250
1.4280025 -1.1915884 3.9942904 251
1.4028258 -1.1902173 3.9971488 252
1.377439 -1.1885065 3.9999354 253
1.351853 -1.1864552 4.0026479 254
1.3260789 -1.184063 4.0052848 255
1.3001275 -1.1813293 4.0078435 256
1.2740103 -1.1782538 4.0103216 257
1.2477382 -1.1748364 4.0127177 258
1.2213228 -1.1710776 4.0150294 259
1.1947751 -1.1669774 4.0172544 260
1.1681068 -1.1625365 4.0193915 261
1.1413292 -1.1577555 4.0214386 262
1.1144538 -1.1526355 4.0233936 263
1.0874923 -1.1471773 4.0252552 264
1.0604562 -1.1413827 4.0270219 265
1.0333571 -1.1352527 4.0286918 266
1.0062069 -1.1287894 4.0302639 267
0.97901696 -1.1219945 4.0317369 268
0.95179927 -1.1148702 4.0331092 269
0.92456555 -1.1074187 4.0343804 270
0.8973276 -1.0996426 4.0355492 271
0.87009716 -1.0915446 4.0366144 272
0.84288609 -1.0831276 4.0375762 273
0.81570619 -1.0743948 4.038434 274
0.78856933 -1.0653492 4.039187 275
0.76148731 -1.0559946 4.039835 276
0.73447192 -1.0463345 4.0403781 277
0.70753503 -1.0363728 4.0408163 278
0.68068844 -1.0261134 4.0411506 279
0.6539439 -1.0155607 4.0413804 280
0.6273132 -1.004719 4.0415068 281
0.60080808 -0.99359304 4.0415306 282
0.57444018 -0.98218733 4.0414534 283
0.54822129 -0.97050691 4.041275 284
0.52216303 -0.95855677 4.0409985 285
0.49627692 -0.94634229 4.0406241 286
0.47057459 -0.93386871 4.0401545 287
0.44506752 -0.92114168 4.0395908 288
0.4197672 -0.90816683 4.0389361 289
0.39468497 -0.89494997 4.0381927 290
0.36983222 -0.88149714 4.0373626 291
0.34522024 -0.86781442 4.036449 292
0.32086018 -0.853908 4.0354552 293
0.29676327 -0.83978426 4.0343843 294
0.27294055 -0.82544965 4.0332398 295
0.249403 -0.8109107 4.0320253 296
0.22616158 -0.79617417 4.0307446 297
0.20322713 -0.78124684 4.0294023 298
0.18061042 -0.76613551 4.0280027 299
0.15832213 -0.75084722 4.0265503 300
0.13637134 -0.73538864 4.0250487 301
0.11476112 -0.71976519 4.0235009 302
0.093492888 -0.70398194 4.0219078 303
0.072568014 -0.68804395 4.0202708 304
0.051987778 -0.6719563 4.0185914 305
0.031753365 -0.65572417 4.0168715 306
0.011865878 -0.63935262 4.0151119 307
-0.0076736687 -0.62284672 4.0133147 308
-0.02686435 -0.60621166 4.0114813 309
-0.045705333 -0.58945245 4.0096135 310
-0.064195879 -0.57257426 4.0077128 311
-0.082335338 -0.55558223 4.0057817 312
-0.10012314 -0.53848153 4.0038204 313
-0.11755885 -0.52127719 4.001832 314
-0.13464208 -0.50397438 3.9998181 315
-0.15137258 -0.48657829 3.9977801 316
-0.16775015 -0.46909401 3.9957197 317
-0.18377474 -0.45152673 3.9936392 318
-0.19944635 -0.43388158 3.9915402 319
-0.21476512 -0.41616368 3.9894247 320
-0.22973125 -0.39837825 3.9872947 321
-0.24434508 -0.38053039 3.9851518 322
-0.25860703 -0.36262527 3.9829981 323
-0.27251762 -0.34466803 3.9808354 324
-0.28607747 -0.32666385 3.9786658 325
-0.29928732 -0.30861783 3.9764912 326
-0.31214797 -0.29053515 3.9743135 327
-0.32466036 -0.27242094 3.9721348 328
-0.33682555 -0.25428033 3.9699566 329
-0.34864464 -0.23611845 3.9677813 330
-0.3601189 -0.21794042 3.9656105 331
-0.37124962 -0.19975135 3.9634464 332
-0.3820383 -0.18155636 3.9612908 333
-0.39248645 -0.16336052 3.9591458 334
-0.40259573 -0.14516896 3.9570131 335
-0.41236791 -0.12698671 3.9548948 336
-0.42180479 -0.10881886 3.9527924 337
-0.43090835 -0.090670437 3.9507084 338
-0.43968067 -0.07254649 3.9486442 339
-0.44812384 -0.054452024 3.9466016 340
-0.45624018 -0.036392048 3.9445827 341
-0.46403199 -0.018371545 3.9425893 342
-0.47150174 -0.00039547341 3.9406233 343
-0.47865197 0.017531218 3.9386861 344
-0.48548532 0.035403609 3.9367797 345
-0.49200451 0.053216796 3.934906 346
-0.49821243 0.070965908 3.9330664 347
-0.50411195 0.088646084 3.9312625 348
-0.50970608 0.10625249 3.9294963 349
-0.51499796 0.12378034 3.9277694 350
-0.51999074 0.14122485 3.9260831 351
-0.52468777 0.15858127 3.9244392 352
-0.52909237 0.17584489 3.9228394 353
-0.53320801 0.19301102 3.9212847 354
-0.53703815 0.21007501 3.9197772 355
-0.54058653 0.22703221 3.9183176 356
-0.5438568 0.24387807 3.916908 357
-0.54685265 0.26060799 3.9155493 358
-0.54957807 0.27721751 3.9142432 359
-0.55203688 0.29370207 3.9129908 360
-0.55423307 0.31005725 3.9117932 361
-0.55617082 0.32627866 3.9106519 362
-0.55785412 0.3423619 3.9095678 363
-0.55928725 0.35830262 3.9085424 364
-0.5604744 0.37409657 3.9075766 365
-0.56141996 0.38973948 3.9066713 366
-0.56212831 0.40522712 3.9058278 367
-0.56260383 0.42055532 3.9050469 368
-0.56285101 0.43571994 3.9043295 369
-0.56287444 0.45071691 3.9036765 370
-0.56267864 0.4655422 3.903089 371
-0.56226826 0.48019177 3.9025676 372
-0.56164795 0.49466169 3.902113 373
-0.56082255 0.50894803 3.9017258 374
-0.55979663 0.52304697 3.901407 375
-0.55857503 0.53695458 3.9011571 376
-0.55716264 0.55066723 3.9009767 377
-0.55556428 0.56418109 3.900866 378
-0.55378473 0.57749248 3.900826 379
-0.55182892 0.59059781 3.9008567 380
-0.54970181 0.60349345 3.9009588 381
-0.54740828 0.61617589 3.9011326 382
-0.54495329 0.62864161 3.9013782 383
-0.54234177 0.64088714 3.901696 384
-0.53957868 0.65290916 3.9020863 385
-0.53666896 0.66470426 3.9025493 386
-0.53361762 0.67626911 3.9030848 387
-0.53042954 0.68760049 3.903693 388
-0.52710974 0.69869518 3.9043741 389
-0.5236631 0.70955002 3.905128 390
-0.52009457 0.72016191 3.9059546 391
-0.5164091 0.73052776 3.9068539 392
-0.51261145 0.74064451 3.9078257 393
-0.50870663 0.75050926 3.9088697 394
-0.50469941 0.76011902 3.9099858 395
-0.50059456 0.76947099 3.9111736 396
-0.4963969 0.77856225 3.9124327 397
-0.49211115 0.78738999 3.913763 398
-0.48774201 0.7959516 3.9151638 399
